ply
format ascii 1.0
element face 0
property list uchar int vertex_indices
element vertex 908
property float x
property float y
property float z
property uchar diffuse_red
property uchar diffuse_green
property uchar diffuse_blue
end_header
1.007659e+000 7.712295e-002 3.165332e+000 54 38 30
8.620159e-001 2.488023e-001 3.068541e+000 207 191 166
8.542643e-001 2.549005e-001 3.057813e+000 93 84 64
9.448903e-001 3.001493e-001 3.092879e+000 191 186 167
9.015680e-001 4.060766e-001 2.929937e+000 14 10 10
8.823313e-001 4.112260e-001 2.978807e+000 20 13 11
8.482089e-001 1.773296e-001 3.013887e+000 187 177 150
1.006675e+000 2.120695e-001 3.162669e+000 134 111 80
9.011108e-001 2.153688e-001 3.103918e+000 134 115 86
8.655604e-001 2.960807e-001 2.947498e+000 85 63 35
8.079413e-001 6.774009e-002 3.028092e+000 241 244 224
1.007381e+000 6.603995e-002 3.154562e+000 175 155 130
7.590530e-001 8.821286e-002 3.051020e+000 40 27 15
9.504800e-001 2.444240e-001 3.117244e+000 219 199 166
9.891511e-001 2.657351e-001 3.151287e+000 220 219 191
9.010514e-001 4.022397e-001 2.930776e+000 14 5 5
9.449538e-001 3.859588e-001 3.114296e+000 203 200 172
9.999369e-001 6.970410e-002 3.163391e+000 238 230 221
9.529448e-001 2.229853e-001 3.103448e+000 212 198 169
1.057025e+000 2.913159e-001 3.142583e+000 44 35 24
9.797555e-001 4.125481e-001 2.796337e+000 33 28 19
9.441160e-001 3.998881e-001 3.114905e+000 203 197 175
1.000955e+000 6.901625e-002 3.153031e+000 243 239 230
7.556800e-001 8.977943e-002 3.058020e+000 149 130 116
1.161170e+000 2.910217e-001 3.192082e+000 60 47 34
9.936964e-001 3.527414e-001 3.123327e+000 37 35 22
9.433420e-001 4.274142e-001 3.109821e+000 207 195 169
8.942219e-001 1.650552e-001 3.108757e+000 90 75 45
8.877759e-001 1.636659e-001 3.115244e+000 90 75 45
1.009557e+000 1.753524e-001 3.077837e+000 60 48 22
9.967008e-001 2.431023e-001 3.122360e+000 128 120 101
8.788623e-001 2.454323e-001 3.075605e+000 55 50 31
8.645112e-001 2.942579e-001 2.943214e+000 209 187 163
1.154204e+000 4.147355e-001 3.203730e+000 198 200 169
8.958360e-001 7.544065e-002 3.051740e+000 14 7 3
9.332416e-001 2.601903e-001 3.135239e+000 231 227 200
9.060978e-001 4.170692e-001 3.171707e+000 221 211 184
9.026689e-001 7.457968e-002 3.052191e+000 96 92 80
8.967888e-001 8.196811e-002 3.049904e+000 29 24 18
9.559475e-001 2.406767e-001 3.148712e+000 45 44 32
9.253130e-001 2.149586e-001 3.116237e+000 145 122 91
9.124000e-001 3.409227e-001 3.135945e+000 228 223 193
9.254701e-001 6.799603e-002 3.037990e+000 243 246 229
9.391406e-001 8.051427e-002 3.073901e+000 99 83 55
9.375930e-001 2.380488e-001 3.133867e+000 231 210 180
8.854281e-001 9.039470e-002 3.049162e+000 43 42 39
9.354175e-001 2.421967e-001 3.125794e+000 166 153 126
9.153374e-001 3.466805e-001 3.141169e+000 240 237 216
8.579613e-001 4.367408e-001 3.115543e+000 222 219 189
8.660615e-001 4.427118e-001 3.129429e+000 249 242 214
8.319532e-001 6.336035e-002 2.999738e+000 237 237 219
9.412399e-001 7.441209e-002 3.057661e+000 130 109 87
1.008733e+000 7.080374e-002 3.139178e+000 95 102 83
9.148605e-001 3.716135e-001 3.160127e+000 218 206 198
9.733720e-001 4.280306e-001 3.135807e+000 114 99 72
1.102673e+000 2.704200e-001 3.163352e+000 24 26 16
1.100295e+000 3.637829e-001 3.167969e+000 15 17 14
1.100295e+000 3.637829e-001 3.167969e+000 15 17 14
8.589338e-001 4.339147e-001 3.095917e+000 96 83 57
1.082383e+000 2.327836e-001 3.160525e+000 212 205 177
8.631108e-001 4.265296e-001 3.031533e+000 40 34 19
7.656642e-001 1.940029e-001 3.055215e+000 212 207 177
1.089763e+000 4.326305e-001 3.191450e+000 83 75 49
8.731284e-001 4.374455e-001 3.104484e+000 211 204 176
8.690775e-001 6.784288e-002 3.097545e+000 72 65 57
8.725178e-001 6.769961e-002 3.101701e+000 227 227 213
9.440888e-001 2.318098e-001 3.112340e+000 207 201 175
1.107172e+000 2.563272e-001 3.148839e+000 36 28 22
8.611495e-001 2.539054e-001 3.064999e+000 67 61 40
8.872867e-001 4.165336e-001 3.109980e+000 212 206 179
9.540427e-001 7.891657e-002 2.925705e+000 18 13 9
9.455726e-001 7.965697e-002 2.923438e+000 5 6 0
1.098697e+000 3.713158e-001 3.150160e+000 149 139 129
8.603995e-001 7.267587e-002 3.069453e+000 238 240 226
1.097222e+000 2.927212e-001 3.166276e+000 95 86 59
7.764312e-001 4.906043e-001 3.065840e+000 106 88 80
9.438263e-001 7.878662e-002 2.901866e+000 21 17 7
9.098939e-001 1.026168e-001 2.897243e+000 81 69 57
1.099519e+000 2.655213e-001 3.195795e+000 101 95 73
1.103382e+000 2.803375e-001 3.172919e+000 104 105 87
1.116474e+000 2.927595e-001 3.140367e+000 42 31 28
1.101888e+000 3.456426e-001 3.171740e+000 116 113 93
9.039805e-001 4.030670e-001 2.926922e+000 14 5 5
8.706316e-001 4.088571e-001 3.103232e+000 215 208 184
7.870943e-001 4.918571e-001 3.061388e+000 208 228 237
8.142640e-001 9.139798e-002 2.851606e+000 21 12 3
1.126527e+000 9.808529e-002 2.945123e+000 19 6 4
1.136954e+000 1.095332e-001 2.935553e+000 12 1 0
1.094505e+000 3.756774e-001 3.148448e+000 205 202 177
7.741998e-001 4.981736e-001 3.056250e+000 183 183 159
9.903235e-001 9.383599e-002 2.795055e+000 17 7 2
8.735045e-001 8.659211e-002 3.065283e+000 135 110 97
8.057256e-001 4.186092e-001 3.045335e+000 92 84 54
7.775621e-001 4.920149e-001 3.063245e+000 77 58 49
7.694265e-001 4.918395e-001 3.057211e+000 231 231 223
9.941493e-001 7.056039e-002 3.150730e+000 202 202 182
1.128471e+000 9.563372e-002 2.943158e+000 86 78 59
1.099828e+000 2.637261e-001 3.198021e+000 217 213 186
9.477885e-001 3.651937e-001 3.114823e+000 76 70 51
9.570484e-001 6.211588e-001 2.972307e+000 202 229 250
7.626556e-001 2.311236e-001 3.060262e+000 216 211 182
9.856718e-001 2.048881e-001 3.121145e+000 88 77 47
8.586330e-001 2.024534e-001 3.086952e+000 86 75 47
1.030620e+000 3.941936e-001 3.132758e+000 221 214 186
8.712582e-001 2.545040e-001 3.079602e+000 100 92 71
9.722157e-001 2.722464e-001 3.105867e+000 222 218 191
9.905818e-001 4.019457e-001 3.122602e+000 43 41 29
9.905818e-001 4.019457e-001 3.122602e+000 43 41 29
1.086426e+000 2.665637e-001 3.146816e+000 171 161 144
7.846832e-001 4.328430e-001 3.050657e+000 127 111 78
9.459385e-001 2.291645e-001 3.104098e+000 120 109 79
1.046445e+000 2.791398e-001 3.141560e+000 221 216 194
1.098821e+000 4.370799e-001 3.183702e+000 90 80 53
1.098821e+000 4.370799e-001 3.183702e+000 90 80 53
8.519066e-001 7.119982e-002 3.070395e+000 39 35 24
9.397026e-001 8.778751e-002 2.904463e+000 7 7 5
1.094887e+000 2.630367e-001 3.150032e+000 184 172 149
9.443058e-001 2.537220e-001 3.101812e+000 41 41 28
1.016396e+000 8.249992e-002 3.056588e+000 42 31 20
9.937543e-001 1.642605e-001 3.144055e+000 117 107 87
9.326716e-001 4.141581e-001 3.104018e+000 226 212 186
9.811464e-001 4.391161e-001 3.148237e+000 107 89 65
9.828261e-001 4.403921e-001 3.146757e+000 107 89 65
8.952274e-001 4.447323e-001 3.110304e+000 116 102 71
8.928504e-001 4.425232e-001 3.113314e+000 116 102 71
8.733986e-001 6.738428e-002 3.116711e+000 231 227 218
7.430562e-001 9.686507e-002 3.075810e+000 213 210 191
8.525712e-001 2.560144e-001 3.068697e+000 209 194 165
1.131905e+000 4.256037e-001 2.536058e+000 43 29 17
7.665204e-001 2.306888e-001 3.124494e+000 208 192 159
7.895063e-001 7.131268e-002 3.049593e+000 104 97 78
9.072555e-001 8.626469e-002 2.906798e+000 40 41 45
9.052550e-001 2.219091e-001 3.100764e+000 216 211 182
1.070291e+000 2.490131e-001 3.159356e+000 155 143 128
1.070289e+000 2.485974e-001 3.159081e+000 155 143 128
8.725402e-001 2.562829e-001 3.074991e+000 108 98 73
1.069353e+000 8.104724e-002 2.963371e+000 36 25 17
1.069353e+000 8.104724e-002 2.963371e+000 36 25 17
1.071844e+000 1.100873e-001 2.960637e+000 3 4 0
9.921691e-001 1.778147e-001 3.069152e+000 134 122 96
1.065732e+000 2.320295e-001 3.153936e+000 212 208 179
9.371979e-001 2.471607e-001 3.102077e+000 215 199 165
9.459803e-001 2.559732e-001 3.093309e+000 185 179 156
9.906481e-001 2.695067e-001 3.146478e+000 119 106 87
1.114185e+000 2.975777e-001 3.136713e+000 213 207 188
1.089815e+000 2.966114e-001 3.153728e+000 217 209 183
1.000885e+000 3.750780e-001 3.099779e+000 117 104 85
8.526615e-001 6.628421e-002 3.072578e+000 136 118 93
9.421958e-001 8.145426e-002 2.909930e+000 60 59 46
8.699705e-001 9.291547e-002 3.073964e+000 186 178 170
1.054197e+000 9.674169e-002 2.950160e+000 94 89 69
8.684453e-001 2.048737e-001 3.106206e+000 230 224 198
9.316752e-001 2.221699e-001 3.100778e+000 214 205 176
1.120500e+000 2.729488e-001 3.137172e+000 41 29 23
7.761266e-001 2.087028e-001 3.293206e+000 218 214 191
9.904830e-001 3.496099e-001 3.128821e+000 126 119 103
9.997188e-001 4.359939e-001 3.162603e+000 122 103 73
9.441460e-001 7.861038e-002 2.909587e+000 32 26 10
1.055811e+000 8.182536e-002 2.948268e+000 95 93 80
1.095604e+000 9.285838e-002 2.948027e+000 11 0 0
1.095565e+000 1.015597e-001 2.948008e+000 11 3 0
1.095565e+000 1.015597e-001 2.948008e+000 11 3 0
1.095932e+000 1.092778e-001 2.947711e+000 11 4 0
9.572726e-001 1.032625e-001 3.106705e+000 16 3 0
7.390017e-001 1.747175e-001 3.067611e+000 213 207 181
1.057619e+000 7.998828e-002 2.950848e+000 42 36 19
8.681188e-001 8.940871e-002 3.104971e+000 224 218 197
8.724837e-001 9.354046e-002 3.071249e+000 192 185 177
1.120340e+000 1.750842e-001 3.122345e+000 43 30 12
8.744667e-001 2.579368e-001 3.076677e+000 90 82 63
8.707845e-001 2.582174e-001 3.074840e+000 112 95 76
9.917945e-001 3.716855e-001 3.124255e+000 41 44 35
1.000735e+000 3.819090e-001 3.102480e+000 109 116 101
1.052529e+000 4.145581e-001 3.162435e+000 216 199 175
8.726673e-001 7.963734e-002 3.066560e+000 136 140 141
8.685318e-001 8.250724e-002 3.081268e+000 8 5 4
9.088875e-001 8.632225e-002 2.905719e+000 21 22 25
9.492298e-001 9.551647e-002 2.925107e+000 101 95 81
1.129207e+000 1.774382e-001 3.116762e+000 111 98 79
8.766801e-001 1.770915e-001 3.082518e+000 67 59 40
1.062176e+000 2.304710e-001 3.155959e+000 213 207 178
8.008178e-001 2.214340e-001 3.049997e+000 204 194 164
8.675860e-001 2.386851e-001 3.106146e+000 214 204 181
8.556696e-001 2.578399e-001 3.067883e+000 203 191 159
8.593084e-001 2.585886e-001 3.068041e+000 34 27 9
1.097556e+000 3.703610e-001 3.149594e+000 70 54 41
8.703238e-001 3.572339e-001 3.110177e+000 180 175 146
9.404300e-001 4.259775e-001 3.111639e+000 207 196 166
9.876240e-001 2.185845e-001 3.166389e+000 234 229 201
9.302716e-001 3.629855e-001 3.166452e+000 44 46 36
9.302716e-001 3.629855e-001 3.166452e+000 44 46 36
7.955114e-001 4.084084e-001 3.041311e+000 93 79 53
8.144532e-001 4.512095e-001 3.075504e+000 108 92 66
7.829888e-001 4.607736e-001 3.043994e+000 224 217 190
7.861994e-001 4.948740e-001 3.060165e+000 213 239 254
7.974641e-001 4.859399e-001 3.064717e+000 251 254 255
9.654723e-001 2.894921e-001 3.168310e+000 231 231 203
7.895240e-001 4.189774e-001 3.039566e+000 97 90 55
7.996713e-001 4.303766e-001 3.052206e+000 129 109 76
8.344255e-001 2.416020e-001 2.965171e+000 107 90 57
7.745591e-001 5.049054e-001 3.051696e+000 249 254 255
1.023500e+000 2.239733e-001 3.213009e+000 140 124 105
7.922289e-001 4.898809e-001 3.065132e+000 249 251 223
9.912734e-001 3.104807e-001 3.247604e+000 69 68 66
1.764214e+000 1.759146e-001 2.052854e+000 50 28 16
1.781358e+000 9.300440e-001 2.361730e+000 255 255 255
2.030686e+000 1.070937e-001 2.261054e+000 4 3 4
2.027156e+000 9.977627e-002 2.211175e+000 48 25 7
2.039387e+000 7.244021e-002 2.256587e+000 16 16 17
1.988678e+000 1.305236e-001 2.202325e+000 77 43 17
1.111051e+000 3.207592e-001 3.167833e+000 122 117 96
1.094861e+000 4.408658e-001 3.191962e+000 205 204 174
7.537244e-001 4.825072e-001 3.054568e+000 250 254 254
2.026921e+000 1.022504e-001 2.233509e+000 27 7 0
9.774417e-001 3.760666e-001 3.107255e+000 216 224 201
8.637617e-001 7.905881e-002 3.073840e+000 139 135 139
1.998156e+000 1.217861e-001 2.199950e+000 22 1 0
9.758336e-001 1.935104e-001 3.064213e+000 164 150 124
8.873169e-001 2.227333e-001 3.113435e+000 174 167 141
4.895403e+000 2.556938e+000 -1.473078e-001 220 215 202
6.094726e-001 4.046134e-002 3.406008e+000 112 86 63
7.454263e-001 6.363784e-002 3.074525e+000 28 15 1
7.714740e-001 2.288979e-001 3.119715e+000 94 86 61
7.966929e-001 4.924672e-001 3.068984e+000 61 70 77
7.715877e-001 4.884238e-001 3.057090e+000 227 213 203
7.718243e-001 4.885927e-001 3.056661e+000 227 213 203
9.903935e-001 1.779507e-001 3.146862e+000 105 97 78
8.857610e-001 2.886459e-001 2.950796e+000 37 29 18
1.125959e+000 4.379133e-001 3.197338e+000 122 104 74
1.153805e+000 6.036052e-001 2.836337e+000 223 218 186
1.006618e+000 4.370013e-001 3.151278e+000 220 216 186
8.474813e-001 1.771858e-001 3.015970e+000 186 179 151
7.894953e-001 4.891965e-001 3.060227e+000 103 81 71
8.882068e-001 1.684603e-001 3.115917e+000 164 154 125
1.112129e+000 4.322457e-001 3.210890e+000 210 199 171
9.471045e-001 4.221235e-001 3.115137e+000 149 129 96
1.041800e+000 7.627822e-002 3.193070e+000 46 38 25
8.084392e-001 2.199977e-001 3.056269e+000 105 88 62
1.066086e+000 4.261369e-001 3.150180e+000 215 201 173
9.183707e-001 4.468933e-001 3.118743e+000 111 95 64
1.004935e+000 6.700095e-002 3.150250e+000 175 161 143
1.015671e+000 9.905396e-002 3.060647e+000 24 6 0
1.102758e+000 2.233360e-001 3.156504e+000 207 195 167
1.116251e+000 2.455476e-001 3.163845e+000 80 74 53
1.067768e+000 2.772092e-001 3.156013e+000 224 217 194
1.029128e+000 4.421641e-001 3.163304e+000 98 89 60
9.825145e-001 4.438276e-001 3.139102e+000 150 132 108
8.836627e-001 4.622367e-001 3.106122e+000 238 231 203
7.902451e-001 4.924540e-001 3.055723e+000 87 71 62
7.422200e-001 7.992561e-002 3.095250e+000 197 186 168
8.641874e-001 7.845167e-002 3.081613e+000 16 13 9
7.998815e-001 8.599681e-002 2.848385e+000 51 61 53
8.657097e-001 8.139802e-002 3.080032e+000 60 62 59
7.458073e-001 8.572644e-002 3.075515e+000 38 37 22
8.625378e-001 8.221562e-002 3.077005e+000 13 18 13
7.440915e-001 8.655129e-002 3.081006e+000 86 91 72
1.071722e+000 2.246684e-001 3.149833e+000 210 201 166
1.071304e+000 2.252093e-001 3.148522e+000 118 107 73
9.599604e-001 2.209340e-001 3.108993e+000 110 93 65
8.314641e-001 2.434622e-001 3.064385e+000 232 228 205
1.060100e+000 2.687433e-001 3.156089e+000 206 205 175
1.043437e+000 3.914110e-001 2.670616e+000 57 42 18
7.719136e-001 4.918186e-001 3.050275e+000 118 115 104
7.797197e-001 4.902884e-001 3.058956e+000 148 145 155
7.761121e-001 4.911620e-001 3.062420e+000 223 226 208
8.464902e-001 3.533137e-001 3.025649e+000 62 49 30
1.103308e+000 2.034094e-001 3.150201e+000 100 85 56
1.082080e+000 2.328908e-001 3.160890e+000 227 220 192
1.100490e+000 2.698479e-001 3.164902e+000 31 29 20
9.916395e-001 7.271756e-002 3.139739e+000 107 98 81
1.089090e+000 3.517232e-001 3.144877e+000 251 245 223
9.982659e-001 4.214102e-001 3.148827e+000 230 223 194
9.487645e-001 4.163760e-001 3.108079e+000 218 211 182
8.009853e-001 4.345849e-001 3.045263e+000 139 119 86
9.417854e-001 4.092989e-001 3.102662e+000 50 52 38
8.877724e-001 4.385681e-001 3.108266e+000 234 227 199
1.053832e+000 8.497412e-002 2.953423e+000 102 99 80
1.054637e+000 9.775870e-002 2.951720e+000 98 91 72
1.126503e+000 2.622269e-001 3.135662e+000 45 41 33
1.109922e+000 3.747381e-001 3.145148e+000 63 56 38
8.121920e-001 4.285872e-001 2.999320e+000 23 18 15
9.520868e-001 4.249980e-001 3.112942e+000 162 144 108
8.661315e-001 4.429037e-001 3.102483e+000 106 91 63
8.661315e-001 4.429037e-001 3.102483e+000 106 91 63
7.831385e-001 4.907386e-001 3.055152e+000 215 230 242
9.875811e-001 1.380043e-001 3.152845e+000 137 125 106
9.513003e-001 2.233449e-001 3.110566e+000 224 217 188
9.935127e-001 3.616178e-001 3.127503e+000 137 124 102
1.100705e+000 4.403018e-001 3.184692e+000 107 93 67
8.520288e-001 7.267454e-002 3.082708e+000 251 255 246
7.375411e-001 9.020267e-002 3.100302e+000 182 166 145
7.336222e-001 9.250275e-002 3.097164e+000 73 58 43
1.070926e+000 2.817237e-001 3.156138e+000 177 177 165
1.001052e+000 3.011170e-001 3.108246e+000 112 100 78
9.895870e-001 3.586259e-001 3.143982e+000 128 118 92
8.497153e-001 7.493811e-002 3.081076e+000 39 33 21
7.795313e-001 8.268331e-002 3.059828e+000 71 71 60
9.794336e-001 2.475765e-001 3.117915e+000 228 207 178
9.463858e-001 2.720051e-001 3.092498e+000 197 195 178
7.826749e-001 2.615302e-001 3.041131e+000 98 71 37
9.152490e-001 2.969303e-001 3.089756e+000 240 235 207
9.941563e-001 3.581059e-001 3.125241e+000 131 124 105
9.894936e-001 3.555750e-001 3.148685e+000 243 238 209
8.122288e-001 4.242490e-001 2.999820e+000 14 16 7
1.106054e+000 4.404230e-001 3.187015e+000 219 221 192
7.675137e-001 4.921441e-001 3.045729e+000 255 255 250
7.351052e-001 6.513107e-002 3.107688e+000 36 29 20
8.523330e-001 6.980037e-002 3.081112e+000 81 53 43
7.452729e-001 8.841950e-002 3.093757e+000 71 56 40
8.903042e-001 4.104294e-001 2.823566e+000 20 15 10
1.102687e+000 3.294977e-001 3.194687e+000 228 234 201
9.150990e-001 4.113601e-001 2.906112e+000 13 12 0
1.057702e+000 3.554468e-001 3.148701e+000 130 122 89
1.058566e+000 3.788036e-001 3.153849e+000 235 232 199
1.065481e+000 4.141933e-001 3.154825e+000 183 176 148
1.095412e+000 4.417777e-001 3.189721e+000 221 217 186
7.752739e-001 4.529834e-001 3.060422e+000 109 103 74
7.917508e-001 4.894400e-001 3.063896e+000 252 249 234
7.737403e-001 5.038591e-001 3.051648e+000 253 255 253
8.545980e-001 8.443410e-002 3.079647e+000 190 203 195
8.611899e-001 8.606308e-002 3.082535e+000 164 139 121
6.983174e-001 8.740510e-002 3.446147e+000 25 14 1
9.909171e-001 2.391058e-001 3.147429e+000 124 116 89
9.812506e-001 2.514408e-001 3.112396e+000 189 173 150
9.812506e-001 2.514408e-001 3.112396e+000 189 173 150
9.903107e-001 3.118928e-001 3.148868e+000 233 227 198
1.009323e+000 3.959665e-001 3.156486e+000 230 226 199
8.131227e-001 4.521098e-001 3.079090e+000 212 208 179
9.977968e-001 6.591826e-002 3.157645e+000 193 177 157
1.008476e+000 6.923849e-002 3.149091e+000 210 207 191
1.070083e+000 8.285183e-002 2.959763e+000 38 23 9
8.706468e-001 8.950594e-002 3.080615e+000 35 33 28
1.127770e+000 1.536545e-001 3.103298e+000 1 4 0
1.060637e+000 2.228553e-001 3.146824e+000 196 181 150
8.755610e-001 2.444072e-001 3.080542e+000 66 58 39
1.031135e+000 4.475675e-001 2.696387e+000 216 237 230
7.447537e-001 3.237978e-001 3.063777e+000 191 193 178
9.954481e-001 3.688851e-001 3.117066e+000 28 26 15
9.422861e-001 3.878119e-001 3.105363e+000 140 128 102
8.909264e-001 3.966389e-001 3.111316e+000 74 68 51
1.097130e+000 4.391586e-001 3.190374e+000 91 90 61
1.097130e+000 4.391586e-001 3.190374e+000 91 90 61
9.872421e-001 4.413656e-001 3.147364e+000 228 224 197
7.362655e-001 6.366376e-002 3.103025e+000 144 137 111
8.520380e-001 6.783063e-002 3.082200e+000 224 215 197
8.575785e-001 6.971892e-002 3.077996e+000 29 20 15
9.887024e-001 7.109665e-002 3.156375e+000 217 214 193
8.673603e-001 9.328793e-002 3.079272e+000 210 204 193
8.637193e-001 9.373071e-002 3.078583e+000 31 17 3
7.968376e-001 2.314548e-001 3.139062e+000 63 46 30
1.063466e+000 2.943890e-001 3.135541e+000 203 189 179
1.010747e+000 2.820926e-001 3.157134e+000 77 73 48
8.404105e-001 4.157399e-001 2.945047e+000 83 76 64
1.088050e+000 4.071084e-001 3.162848e+000 177 176 155
8.691018e-001 4.233291e-001 3.022127e+000 33 23 12
9.802667e-001 4.285279e-001 3.111379e+000 128 107 76
7.705938e-001 4.908672e-001 3.053191e+000 206 200 184
7.952424e-001 4.908041e-001 3.068670e+000 220 230 208
7.970894e-001 4.931675e-001 3.067969e+000 64 81 80
7.727173e-001 4.906136e-001 3.057696e+000 171 177 162
8.464967e-001 1.235395e-001 3.013256e+000 19 14 11
9.353872e-001 4.625633e-001 3.151636e+000 212 238 255
8.912067e-001 1.440006e-001 3.134917e+000 15 14 9
9.709915e-001 3.931042e-001 3.104978e+000 246 243 224
9.942992e-001 2.912983e-001 3.121932e+000 37 40 33
9.945957e-001 3.673780e-001 3.119520e+000 48 51 42
8.832475e-001 8.247779e-002 3.135656e+000 47 34 23
9.259036e-001 2.738358e-001 3.099626e+000 235 231 204
8.652235e-001 4.261832e-001 3.029163e+000 61 51 28
1.014222e+000 1.740921e-001 3.059594e+000 43 29 16
1.066651e+000 2.576100e-001 3.140767e+000 36 40 26
8.867313e-001 4.370447e-001 3.108842e+000 230 223 195
8.835803e-001 2.085274e-001 3.128764e+000 159 134 103
8.362735e-001 2.992698e-001 2.912449e+000 215 201 172
9.475133e-001 4.277535e-001 3.105869e+000 220 211 182
7.967251e-001 4.908744e-001 3.065432e+000 130 113 92
7.948776e-001 6.853184e-002 3.061136e+000 251 252 251
7.948776e-001 6.853184e-002 3.061136e+000 251 252 251
8.805622e-001 1.854447e-001 3.122514e+000 234 229 200
9.437468e-001 2.261136e-001 3.116710e+000 141 109 81
9.463613e-001 2.276548e-001 3.112795e+000 141 109 81
1.070622e+000 2.492857e-001 3.158933e+000 169 168 156
1.122551e+000 2.668249e-001 3.130775e+000 190 182 161
8.421716e-001 2.942388e-001 2.916916e+000 137 127 110
7.838854e-001 2.586387e-001 3.037634e+000 217 196 165
1.072264e+000 2.823760e-001 3.154684e+000 178 180 167
8.653163e-001 4.161925e-001 2.878088e+000 16 13 8
9.414250e-001 3.588658e-001 3.113359e+000 228 221 191
9.804336e-001 4.182450e-001 3.109939e+000 217 211 179
9.383425e-001 4.182333e-001 3.096405e+000 234 227 199
9.344278e-001 4.141579e-001 3.102762e+000 234 227 199
8.495944e-001 7.247821e-002 3.088222e+000 246 248 235
7.779392e-001 2.222132e-001 3.038147e+000 126 102 64
8.900874e-001 4.114283e-001 2.821879e+000 13 12 7
1.013024e+000 4.454832e-001 3.150194e+000 131 109 76
7.880727e-001 6.804430e-002 3.062762e+000 112 96 74
8.584038e-001 8.122172e-002 3.082361e+000 22 24 21
7.506220e-001 9.147747e-002 3.090427e+000 210 202 183
9.110312e-001 1.858010e-001 2.932042e+000 19 17 4
7.993188e-001 1.782573e-001 2.992871e+000 214 207 178
7.916889e-001 1.804743e-001 3.002159e+000 216 215 187
9.419369e-001 2.541029e-001 3.099531e+000 180 177 160
1.116090e+000 2.991000e-001 3.153252e+000 117 101 76
8.906110e-001 3.902815e-001 3.112663e+000 176 173 162
7.668679e-001 4.899500e-001 3.048710e+000 220 232 225
7.781723e-001 4.918111e-001 3.063422e+000 82 77 59
7.737344e-001 7.508325e-002 3.056351e+000 222 187 146
1.012654e+000 7.352738e-002 3.071142e+000 34 28 16
1.006043e+000 1.826811e-001 3.163135e+000 229 220 198
1.013881e+000 2.139965e-001 3.154066e+000 236 224 198
9.361853e-001 2.536175e-001 3.097114e+000 224 222 197
1.000637e+000 3.860003e-001 3.095658e+000 184 183 163
1.068946e+000 4.295387e-001 3.149136e+000 138 112 86
1.104004e+000 4.434254e-001 3.183979e+000 97 92 62
9.884281e-001 4.458307e-001 3.142566e+000 103 91 64
7.835011e-001 8.165408e-002 3.053753e+000 166 129 107
7.725356e-001 8.455666e-002 3.053378e+000 28 21 10
8.600275e-001 8.595813e-002 3.084899e+000 168 135 106
9.910413e-001 1.905239e-001 3.149268e+000 112 107 80
9.469759e-001 2.217304e-001 3.111644e+000 222 212 181
7.801626e-001 2.537729e-001 3.035256e+000 65 45 19
7.801626e-001 2.537729e-001 3.035256e+000 65 45 19
7.961735e-001 4.888976e-001 3.062757e+000 127 113 111
7.375534e-001 6.446846e-002 3.101937e+000 26 15 2
7.415907e-001 6.630838e-002 3.100917e+000 189 177 161
7.366836e-001 6.648463e-002 3.102446e+000 196 178 164
7.449857e-001 8.676044e-002 3.089401e+000 118 115 96
7.492957e-001 9.354825e-002 3.091313e+000 97 79 65
7.492957e-001 9.354825e-002 3.091313e+000 97 79 65
9.918375e-001 1.983814e-001 3.149984e+000 231 226 197
1.007984e+000 2.133493e-001 3.163476e+000 150 130 97
8.329847e-001 2.434520e-001 3.068225e+000 243 236 207
9.383525e-001 2.499057e-001 3.104191e+000 119 107 84
9.383525e-001 2.499057e-001 3.104191e+000 119 107 84
8.682671e-001 4.492100e-001 3.101269e+000 213 222 191
8.834962e-001 4.616407e-001 3.106352e+000 248 243 214
8.555598e-001 6.568171e-002 3.122653e+000 66 67 52
8.463762e-001 7.161884e-002 3.088183e+000 253 239 231
8.463762e-001 7.161884e-002 3.088183e+000 253 239 231
9.858629e-001 6.721024e-002 3.160004e+000 253 252 240
7.780628e-001 8.429343e-002 3.053285e+000 132 113 101
7.458791e-001 9.249019e-002 3.095643e+000 178 171 152
8.642114e-001 8.990012e-002 3.080896e+000 172 169 170
7.419447e-001 9.328374e-002 3.098603e+000 92 84 65
1.031292e+000 1.066167e-001 2.885130e+000 84 68 53
7.397490e-001 1.773919e-001 3.066289e+000 194 188 162
1.079607e+000 2.228993e-001 3.144462e+000 121 104 73
9.879645e-001 2.373938e-001 3.153200e+000 233 226 198
8.661061e-001 2.433071e-001 3.079489e+000 166 154 128
7.998564e-001 2.595093e-001 3.045855e+000 62 45 23
1.064743e+000 2.748852e-001 3.151268e+000 219 218 188
1.121277e+000 3.006212e-001 3.133548e+000 125 106 89
8.280246e-001 4.337879e-001 3.051424e+000 127 108 78
9.882943e-001 4.459641e-001 3.143891e+000 81 75 45
7.775363e-001 4.950183e-001 3.052082e+000 152 143 123
9.756413e-001 1.471043e-001 3.272977e+000 138 125 103
1.013977e+000 1.960677e-001 3.245862e+000 147 133 107
1.821695e+000 1.116962e-001 2.324698e+000 17 8 0
1.644658e+000 1.279717e-001 2.525362e+000 60 42 29
1.451953e+000 6.319502e-001 2.723593e+000 244 236 219
2.053138e+000 3.561075e-001 1.872811e+000 25 21 12
1.896420e+000 1.086401e+000 2.068068e+000 247 244 225
2.005766e+000 5.482774e-001 1.920427e+000 136 117 84
2.075065e+000 3.673681e-001 1.839551e+000 24 20 11
1.631821e+000 8.592793e-001 2.690552e+000 129 110 80
1.631821e+000 8.592793e-001 2.690552e+000 129 110 80
1.449053e+000 3.911342e-001 2.504246e+000 130 110 75
8.129552e-001 4.498977e-001 3.076795e+000 92 84 53
2.072105e+000 9.581651e-002 1.940797e+000 6 4 1
2.061628e+000 1.239450e-001 1.951613e+000 0 5 3
2.103395e+000 1.070937e-001 1.969971e+000 80 73 52
1.045562e+000 1.005612e-001 2.960619e+000 89 83 61
2.100397e+000 1.162149e-001 1.976184e+000 14 4 0
2.100397e+000 1.162149e-001 1.976184e+000 14 4 0
2.094863e+000 1.270108e-001 1.981318e+000 19 1 0
2.123291e+000 1.036539e-001 1.990778e+000 94 77 59
8.962978e-001 9.332142e-002 2.913470e+000 15 3 1
2.115112e+000 1.330303e-001 1.999568e+000 78 50 32
1.013962e+000 4.483893e-001 3.151848e+000 205 204 174
2.368395e+000 1.437677e+000 1.555402e+000 255 255 245
2.338808e+000 1.376118e+000 1.340984e+000 246 240 220
2.317194e+000 1.387116e+000 1.447778e+000 49 56 48
1.610531e+000 1.697819e+000 1.139572e+000 133 113 80
2.669137e+000 1.749104e+000 1.283107e+000 221 215 191
1.050715e+000 8.123815e-002 2.948143e+000 26 26 19
1.064805e+000 2.261589e-001 3.146067e+000 136 111 80
1.054629e+000 2.979824e-001 3.135735e+000 225 223 198
9.828735e-001 4.441224e-001 3.138427e+000 163 142 111
9.833049e-001 4.447469e-001 3.137802e+000 163 142 111
2.318597e+000 1.426964e+000 1.695155e+000 240 222 212
1.122161e+000 4.387287e-001 3.193604e+000 234 217 186
9.047750e-001 9.296699e-002 2.906944e+000 17 6 2
2.278998e+000 1.309031e-001 1.623730e+000 82 55 33
2.329636e+000 7.673976e-001 1.147004e+000 235 227 198
9.761978e-001 1.936052e-001 3.062774e+000 182 166 133
1.116273e+000 2.483252e-001 3.164062e+000 145 133 115
1.069885e+000 2.616452e-001 3.156599e+000 181 175 157
9.836578e-001 6.978918e-002 3.154941e+000 108 96 80
8.911738e-001 3.600567e-001 2.798768e+000 55 43 29
1.107439e+000 4.396834e-001 3.185542e+000 216 211 182
9.014977e-001 8.104240e-002 2.911990e+000 18 20 19
1.055860e+000 2.926705e-001 3.133418e+000 234 233 213
8.914691e-001 2.084635e-001 3.332148e+000 233 231 210
1.114996e+000 3.284724e-001 3.162355e+000 139 134 116
1.041311e+000 1.314025e-001 2.890737e+000 13 3 0
9.465760e-001 2.241492e-001 3.112539e+000 147 130 97
8.861219e-001 3.376413e-001 2.804183e+000 225 202 171
1.060550e+000 4.310024e-001 3.148892e+000 176 167 139
1.532981e+000 1.012303e-001 2.653798e+000 91 84 67
1.525883e+000 1.096383e-001 2.661991e+000 17 4 1
8.090992e-001 9.722848e-002 3.391420e+000 4 1 0
9.814516e-001 2.499922e-001 3.119729e+000 116 103 78
7.700178e-001 4.912544e-001 3.047103e+000 232 235 229
7.700178e-001 4.912544e-001 3.047103e+000 232 235 229
9.099889e-001 9.290403e-002 2.903696e+000 20 10 0
9.947046e-001 1.054381e-001 3.165835e+000 209 204 182
1.028901e+000 1.199914e-001 2.885099e+000 136 117 91
8.079413e-001 9.708787e-002 3.391462e+000 126 110 94
1.116001e+000 2.955990e-001 3.160857e+000 40 43 33
1.066969e+000 4.276204e-001 3.149502e+000 232 212 186
1.008994e+000 4.429279e-001 3.150855e+000 233 215 188
8.420370e-001 5.593496e-002 3.020055e+000 164 131 100
1.014243e+000 3.761855e-001 3.152421e+000 255 254 250
9.064125e-001 2.054078e-001 3.103166e+000 156 136 103
8.493321e-001 1.048381e-001 3.118997e+000 9 8 6
9.279051e-001 2.303362e-001 3.100597e+000 232 225 196
9.198771e-001 3.839959e-001 3.104597e+000 230 225 203
8.539642e-001 7.328323e-002 3.113922e+000 36 36 26
1.056254e+000 2.821141e-001 3.131624e+000 240 236 209
8.584558e-001 2.665737e-001 3.105772e+000 36 27 18
8.760569e-001 3.975745e-001 2.706687e+000 127 96 67
8.625866e-001 4.155859e-001 3.103985e+000 101 87 60
8.529780e-001 9.917216e-002 3.121491e+000 10 9 7
9.490986e-001 4.167785e-001 3.107189e+000 216 209 180
9.335655e-001 2.399014e-001 3.102866e+000 221 216 187
9.371952e-001 3.834223e-001 3.090846e+000 221 223 202
1.016527e+000 4.167801e-001 3.151269e+000 161 138 104
8.960338e-001 4.439832e-001 3.110379e+000 129 109 76
8.960338e-001 4.439832e-001 3.110379e+000 129 109 76
8.449218e-001 4.242226e-001 2.930342e+000 11 14 14
8.964063e-001 4.468301e-001 3.107152e+000 123 104 71
8.525291e-001 2.564281e-001 3.068852e+000 223 208 179
8.425359e-001 2.564128e-001 3.065007e+000 225 210 179
9.060229e-001 4.047871e-001 2.588333e+000 67 54 31
9.060229e-001 4.047871e-001 2.588333e+000 67 54 31
8.702840e-001 4.318348e-001 3.011975e+000 12 13 8
9.467521e-001 4.164663e-001 3.093653e+000 50 46 33
7.731215e-001 4.953169e-001 3.060519e+000 213 213 181
8.579977e-001 2.542080e-001 3.069326e+000 43 31 17
8.481877e-001 2.544372e-001 3.064966e+000 50 35 14
9.936314e-001 2.505095e-001 3.132956e+000 147 136 109
7.838020e-001 4.116613e-001 3.046571e+000 102 92 62
9.427726e-001 4.267710e-001 3.102818e+000 105 88 62
1.012804e+000 4.450383e-001 3.150628e+000 122 105 67
7.695033e-001 4.402067e-001 3.071974e+000 219 214 185
8.511258e-001 6.485274e-002 3.075983e+000 157 137 107
8.450918e-001 1.013154e-001 2.855125e+000 32 27 19
8.479208e-001 1.018742e-001 2.841977e+000 32 27 19
1.096485e+000 2.468164e-001 3.161084e+000 217 202 171
9.068177e-001 3.927931e-001 2.587955e+000 130 89 64
1.052387e+000 6.200076e-001 1.826820e+000 138 100 81
8.974184e-001 4.227174e-001 2.792268e+000 14 13 9
1.116503e+000 3.810232e-001 3.130096e+000 251 251 242
1.011760e+000 4.446638e-001 3.151469e+000 121 103 67
1.014367e+000 4.476005e-001 3.147895e+000 121 103 67
9.165527e-001 4.189964e-001 2.722725e+000 213 239 255
8.370455e-001 9.961748e-002 2.865158e+000 83 79 68
1.250249e+000 1.023727e-001 2.925113e+000 10 8 4
1.045755e+000 1.096818e-001 2.854577e+000 16 8 6
1.032448e+000 1.110958e-001 2.828867e+000 14 16 16
1.017701e+000 1.098425e-001 2.861609e+000 14 16 16
1.259819e+000 1.112166e-001 2.929165e+000 8 1 0
1.032902e+000 1.347746e-001 2.828012e+000 24 11 2
1.025834e+000 1.321118e-001 2.869420e+000 19 10 2
8.605620e-001 1.771245e-001 3.019507e+000 146 132 106
1.005640e+000 2.388809e-001 3.166852e+000 194 183 155
1.114237e+000 2.897918e-001 3.155695e+000 73 68 46
7.830448e-001 2.919795e-001 3.040413e+000 232 247 248
9.393183e-001 2.936361e-001 3.101640e+000 44 42 29
8.763161e-001 4.090033e-001 2.758355e+000 204 246 246
9.244997e-001 4.212579e-001 2.875353e+000 10 11 6
8.679597e-001 4.251243e-001 3.009733e+000 126 117 101
8.679597e-001 4.251243e-001 3.009733e+000 126 117 101
1.096887e+000 4.266169e-001 3.195603e+000 198 202 175
9.222417e-001 4.522714e-001 3.115856e+000 210 207 176
7.728942e-001 4.994374e-001 3.057297e+000 254 254 251
8.607388e-001 9.408316e-002 3.093151e+000 26 19 2
1.254775e+000 1.107887e-001 2.927104e+000 17 6 0
7.599238e-001 9.012201e-002 3.494925e+000 52 42 32
1.076292e+000 2.195697e-001 3.157262e+000 117 102 72
1.114373e+000 2.913095e-001 3.158602e+000 16 13 4
7.833722e-001 2.928365e-001 3.037836e+000 234 247 245
7.995877e-001 6.876562e-002 3.054558e+000 255 251 236
1.171435e+000 8.236180e-002 2.975751e+000 102 99 84
1.080136e+000 1.955506e-001 3.096461e+000 123 105 69
1.058976e+000 2.353776e-001 3.159674e+000 228 224 196
8.286137e-001 2.271598e-001 3.172388e+000 38 26 5
8.696268e-001 4.097425e-001 2.684839e+000 200 165 124
9.432432e-001 2.937126e-001 3.097773e+000 182 178 167
8.438256e-001 4.196333e-001 2.931573e+000 65 64 53
1.121298e+000 3.828514e-001 3.129286e+000 91 73 66
9.427680e-001 3.771685e-001 3.091516e+000 163 171 150
9.507163e-001 4.305439e-001 3.106144e+000 220 202 172
7.880626e-001 4.494369e-001 3.074712e+000 213 214 183
1.194701e+000 8.328063e-002 2.976811e+000 38 22 9
8.610219e-001 9.225637e-002 3.089554e+000 101 72 54
8.607579e-001 9.375266e-002 3.088101e+000 104 86 70
1.042027e+000 1.078359e-001 2.854630e+000 83 66 52
1.010544e+000 1.790128e-001 3.163776e+000 187 169 141
1.068357e+000 2.225605e-001 3.148985e+000 220 209 176
8.178770e-001 2.435788e-001 3.064164e+000 239 231 203
8.619262e-001 2.348295e-001 3.117457e+000 225 217 197
7.774049e-001 2.261382e-001 3.159751e+000 139 122 95
1.002924e+000 4.205663e-001 3.107691e+000 43 42 24
1.002924e+000 4.205663e-001 3.107691e+000 43 42 24
8.832109e-001 4.548509e-001 3.106818e+000 241 235 209
7.775377e-001 4.954160e-001 3.064002e+000 236 224 202
8.255425e-001 2.772648e-001 2.961611e+000 57 48 26
8.228700e-001 2.824755e-001 2.954293e+000 212 198 169
1.844831e+000 6.166824e-001 1.629659e+000 135 115 82
1.108697e+000 3.555083e-001 3.168827e+000 111 110 80
9.805272e-001 4.291248e-001 3.113053e+000 130 107 76
1.534581e+000 5.067329e-001 2.382649e+000 120 103 80
2.732072e+000 1.634801e+000 7.538566e-001 232 226 204
2.867371e+000 1.107743e+000 1.495074e-001 233 226 197
2.737852e+000 4.009358e-002 2.824504e-002 48 28 19
2.861892e+000 2.113755e-001 6.465966e-001 60 38 24
1.024698e+000 4.456545e-001 3.153859e+000 117 102 67
1.160646e+000 1.066929e-001 3.054282e+000 17 9 0
1.116553e+000 2.484317e-001 3.163725e+000 143 126 108
1.110694e+000 3.812591e-001 3.140015e+000 200 196 184
2.899327e+000 1.099120e-001 5.844938e-001 8 10 1
9.806045e-001 2.490116e-001 3.117859e+000 219 200 173
2.348022e+000 2.036265e+000 6.146579e-001 224 213 195
1.073209e+000 4.533111e-001 3.168361e+000 220 213 185
8.833490e-001 3.398456e-001 2.788938e+000 218 203 170
8.753057e-001 3.448145e-001 2.786349e+000 75 60 36
8.106818e-001 4.510338e-001 3.082752e+000 221 210 185
8.755822e-001 3.349803e-001 2.786545e+000 135 127 108
9.515963e-001 2.204033e-001 3.110525e+000 134 117 87
1.039392e+000 2.504072e-001 3.137461e+000 185 179 155
1.006325e+000 1.125178e-001 2.901257e+000 82 51 26
1.121440e+000 2.986845e-001 3.131584e+000 205 193 182
1.066620e+000 4.275344e-001 3.148879e+000 224 204 177
8.623516e-001 3.324494e-001 2.782398e+000 127 99 70
1.108975e+000 3.680595e-001 3.155954e+000 29 25 6
1.108975e+000 3.680595e-001 3.155954e+000 29 25 6
1.018689e+000 2.403464e-001 3.147278e+000 228 217 187
1.017934e+000 3.191194e-001 3.149929e+000 249 246 222
1.086397e+000 4.220117e-001 3.179147e+000 122 107 78
9.136112e-001 2.106723e-001 3.080042e+000 158 138 103
1.086275e+000 2.329159e-001 3.158860e+000 219 212 183
1.090889e+000 2.358902e-001 3.152483e+000 219 212 183
1.118519e+000 2.756455e-001 3.153182e+000 31 29 16
1.088796e+000 3.143642e-001 3.147626e+000 248 243 221
9.440802e-001 4.545084e-001 3.128046e+000 218 211 182
9.620692e-001 1.772077e-001 3.064177e+000 207 200 171
1.009428e+000 1.823340e-001 3.168836e+000 153 130 98
1.116088e+000 2.699010e-001 3.133950e+000 190 183 165
8.519005e-001 6.486651e-002 3.089780e+000 170 146 123
8.429707e-001 9.800909e-002 2.862830e+000 18 14 11
8.513718e-001 1.026261e-001 2.861173e+000 109 106 89
1.128282e+000 1.186878e-001 3.177535e+000 119 106 87
1.114227e+000 2.639620e-001 3.170927e+000 131 119 95
8.625955e-001 4.217118e-001 3.065080e+000 219 214 184
1.066554e+000 4.285188e-001 3.144044e+000 215 209 181
8.426829e-001 7.728040e-002 2.866336e+000 18 17 10
8.613310e-001 2.126702e-001 3.108021e+000 96 82 53
9.458799e-001 2.275643e-001 3.112016e+000 138 115 91
8.671856e-001 3.786497e-001 2.648510e+000 214 202 170
8.760662e-001 3.849508e-001 2.649245e+000 59 46 22
8.583206e-001 3.844127e-001 2.644378e+000 57 34 20
8.698436e-001 4.027135e-001 2.655477e+000 137 103 75
1.175253e+000 4.187603e-001 3.172892e+000 223 215 187
1.054485e+000 4.156596e-001 3.138909e+000 234 219 191
9.871425e-001 4.445423e-001 3.141938e+000 107 93 65
9.871425e-001 4.445423e-001 3.141938e+000 107 93 65
1.171523e+000 9.787710e-002 2.979743e+000 100 95 76
8.714510e-001 2.985057e-001 2.916630e+000 58 38 20
8.326379e-001 2.972801e-001 2.906384e+000 120 92 68
1.111827e+000 3.266987e-001 3.188759e+000 239 236 207
1.111930e+000 2.484228e-001 3.161026e+000 151 126 96
9.938541e-001 4.163005e-001 3.116052e+000 134 127 100
8.379911e-001 9.646147e-002 2.862816e+000 17 18 13
8.976262e-001 2.506247e-001 3.089701e+000 152 136 111
1.108336e+000 2.693298e-001 3.191325e+000 114 110 83
8.999911e-001 4.489621e-001 3.113662e+000 207 206 176
8.320639e-001 7.611965e-002 2.867356e+000 25 27 21
1.032405e+000 1.082880e-001 2.899252e+000 11 14 2
1.032212e+000 1.305768e-001 2.899763e+000 22 11 3
1.027774e+000 1.303862e-001 2.897184e+000 18 9 5
1.036758e+000 1.305923e-001 2.901812e+000 21 8 0
1.110803e+000 1.321183e-001 3.201224e+000 222 224 195
1.120929e+000 1.608462e-001 3.187500e+000 224 225 194
8.626581e-001 2.045578e-001 3.115511e+000 241 232 205
9.391473e-001 2.320874e-001 3.112703e+000 115 102 76
9.810616e-001 2.497447e-001 3.120841e+000 119 109 83
1.124122e+000 3.002146e-001 3.128186e+000 192 184 172
1.057982e+000 3.512126e-001 3.156315e+000 222 216 190
1.020208e+000 4.479131e-001 3.153674e+000 212 205 176
9.851482e-001 6.548453e-002 3.154994e+000 172 155 134
8.366409e-001 7.618437e-002 2.870743e+000 16 15 10
8.393286e-001 7.650189e-002 2.875791e+000 8 7 1
8.383056e-001 7.843785e-002 2.872504e+000 69 67 59
1.206561e+000 1.089220e-001 2.980753e+000 4 4 3
1.070473e+000 2.302031e-001 3.153755e+000 133 119 83
9.390438e-001 2.292579e-001 3.117736e+000 228 219 190
9.498673e-001 4.193048e-001 3.111586e+000 174 163 133
8.605438e-001 9.331681e-002 3.083597e+000 28 12 0
9.992120e-001 1.057418e-001 3.158949e+000 208 203 181
9.680444e-001 1.750111e-001 3.070947e+000 166 151 125
1.070552e+000 1.940927e-001 3.094857e+000 194 179 146
1.071310e+000 1.944682e-001 3.101236e+000 131 113 80
1.061318e+000 3.567470e-001 3.145607e+000 128 115 93
1.128261e+000 4.460274e-001 3.189355e+000 110 78 50
8.363996e-001 9.580644e-002 2.854040e+000 83 82 70
8.616570e-001 9.369051e-002 3.084004e+000 114 102 89
1.055820e+000 2.438220e-001 3.144589e+000 227 217 185
1.112343e+000 2.573047e-001 3.158667e+000 80 61 37
9.487423e-001 5.485995e-001 2.103448e+000 227 199 175
8.103273e-001 3.051855e-001 2.894498e+000 214 185 158
8.881742e-001 3.558582e-001 2.802978e+000 52 44 22
1.108656e+000 2.725276e-001 3.193157e+000 221 220 192
1.116500e+000 2.992014e-001 3.161641e+000 119 123 107
1.112689e+000 2.942076e-001 3.187328e+000 221 222 191
1.067714e+000 3.003428e-001 3.155332e+000 207 201 175
9.878642e-001 3.157676e-001 3.149755e+000 137 131 103
1.175687e+000 4.144832e-001 3.177049e+000 150 142 127
8.917515e-001 4.470278e-001 3.110321e+000 105 100 66
8.700361e-001 4.482746e-001 3.101487e+000 72 70 40
2.257240e+000 4.826487e-001 1.028192e+000 21 18 13
2.361456e+000 3.911255e-001 1.062098e+000 5 5 5
1.341311e+000 6.200242e-001 2.900806e+000 149 125 94
1.138346e+000 1.016686e-001 2.933738e+000 20 0 0
2.567369e+000 1.756690e+000 9.851073e-001 249 246 227
1.129336e+000 1.095337e-001 2.923603e+000 8 5 0
1.124222e+000 1.318769e-001 2.921762e+000 12 2 1
1.058504e+000 4.457868e-001 3.168869e+000 201 201 166
1.049485e+000 1.001485e-001 3.159496e+000 98 52 19
1.690581e+000 1.231190e-001 1.839188e+000 5 10 14
1.045955e+000 1.088370e-001 2.883689e+000 17 4 0
1.133348e+000 3.399400e-001 1.906540e+000 78 79 48
1.085718e+000 4.209022e-001 3.146360e+000 168 154 135
1.561770e+000 6.848787e-001 2.188887e+000 188 184 172
1.382134e+000 1.627274e-001 2.076095e+000 69 37 14
1.589461e+000 1.005230e+000 2.184780e+000 183 185 171
1.671049e+000 2.724693e-001 2.064191e+000 97 83 57
1.588937e+000 9.243015e-001 2.198510e+000 182 179 164
1.486115e+000 7.203034e-001 2.099268e+000 172 170 149
1.777042e+000 9.127863e-001 2.277046e+000 255 253 247
1.122001e+000 3.913659e-001 3.124628e+000 253 255 241
1.075953e+000 4.475137e-001 3.173877e+000 215 209 180
1.075626e+000 1.937619e-001 3.095586e+000 192 177 147
2.813286e+000 1.166002e-001 -5.569625e-001 43 22 2
1.076129e+000 1.956934e-001 3.093670e+000 138 119 87
1.500199e+000 5.256826e-001 2.117558e+000 237 222 196
1.806283e+000 9.964021e-001 2.319704e+000 93 71 60
2.549498e+000 6.315483e-001 3.956576e-003 21 21 13
1.037299e+000 4.545424e-001 3.157708e+000 211 204 176
2.328297e+000 1.645368e+000 -1.163998e-001 216 213 186
9.504262e-001 2.235191e-001 3.114444e+000 219 214 184
1.078548e+000 4.440257e-001 3.172200e+000 110 91 61
1.083813e+000 1.778465e-001 3.099613e+000 222 214 185
1.104984e+000 4.439249e-001 3.182544e+000 94 89 57
8.652121e-001 9.342806e-002 3.421305e+000 3 3 3
1.116023e+000 2.458302e-001 3.163896e+000 85 75 51
1.026388e+000 7.739826e-002 2.968417e+000 87 77 55
9.736079e-001 2.211006e-001 3.116099e+000 120 103 72
9.889481e-001 4.465687e-001 3.143074e+000 92 82 49
2.575562e+000 1.159121e-001 1.275799e+000 68 43 32
1.037314e+000 1.094092e-001 2.882225e+000 86 52 28
1.185486e+000 5.851856e-001 2.296692e+000 209 199 174
9.444903e-001 4.296309e-001 3.105732e+000 219 205 177
9.831621e-001 4.449754e-001 3.137602e+000 153 136 110
1.006613e+000 1.386757e-001 3.167769e+000 30 15 0
9.206214e-001 1.930678e-001 3.045839e+000 180 170 135
1.124875e+000 2.643357e-001 3.132199e+000 60 43 30
1.128927e+000 2.539533e-001 3.200644e+000 226 226 205
1.128112e+000 3.934451e-001 3.193372e+000 74 54 46
1.176943e+000 4.116510e-001 3.179282e+000 49 48 30
8.830897e-001 4.545292e-001 3.107479e+000 239 234 205
8.806691e-001 4.244027e-001 3.107616e+000 222 215 187
8.536458e-001 1.770298e-001 3.513016e+000 222 210 186
1.103830e+000 4.418114e-001 3.179225e+000 100 88 60
1.103830e+000 4.418114e-001 3.179225e+000 100 88 60
9.465986e-001 4.259897e-001 3.108205e+000 221 212 183
1.197398e+000 1.084741e-001 2.937147e+000 98 92 70
9.313028e-001 7.960207e-002 3.015672e+000 34 29 23
1.105211e+000 2.645297e-001 3.200172e+000 229 224 195
1.082501e+000 6.549278e-001 2.532983e+000 168 157 125
1.076758e+000 4.486563e-001 3.172068e+000 221 215 186
9.666228e-001 1.092502e-001 2.889205e+000 37 25 13
1.001902e+000 1.804132e-001 3.173039e+000 227 220 192
1.104709e+000 2.330533e-001 3.198449e+000 121 114 86
1.108045e+000 2.379158e-001 3.194009e+000 130 121 94
9.524118e-001 2.945952e-001 3.111590e+000 215 209 185
9.656184e-001 4.487736e-001 3.135865e+000 209 207 177
9.004266e-001 2.850826e-001 3.087625e+000 207 196 164
1.095107e+000 7.328075e-001 2.356449e+000 200 187 155
9.035590e-001 3.761481e-001 3.083097e+000 198 198 167
1.104774e+000 4.436431e-001 3.183446e+000 96 94 66
1.063160e+000 1.954511e-001 3.082134e+000 200 187 155
1.061430e+000 1.955396e-001 3.092469e+000 135 116 84
1.125080e+000 2.546417e-001 3.201040e+000 233 228 208
1.116204e+000 2.946540e-001 3.153520e+000 101 86 65
1.125247e+000 3.824248e-001 3.123271e+000 135 121 101
1.126824e+000 4.342742e-001 3.114942e+000 220 197 196
1.126824e+000 4.342742e-001 3.114942e+000 220 197 196
1.069774e+000 4.474723e-001 3.167082e+000 104 97 67
9.604826e-001 4.465041e-001 3.133684e+000 103 96 62
1.105480e+000 6.758458e-002 3.207346e+000 71 64 39
1.081415e+000 1.972020e-001 3.088216e+000 132 113 83
9.381496e-001 2.287002e-001 3.119955e+000 230 222 193
1.124781e+000 2.521418e-001 3.204080e+000 178 173 153
9.528434e-001 3.567821e-001 3.102654e+000 168 162 140
1.123252e+000 3.842261e-001 3.125715e+000 71 63 50
1.068142e+000 3.622627e-001 3.153658e+000 191 188 169
9.906034e-001 3.584836e-001 3.151235e+000 201 194 166
8.691029e-001 4.219908e-001 3.021476e+000 20 8 1
9.135269e-001 4.479052e-001 3.118599e+000 200 200 172
9.214746e-001 7.201583e-002 3.022971e+000 108 94 68
9.682586e-001 8.810848e-002 2.898154e+000 14 15 5
9.916950e-001 1.207691e-001 3.173467e+000 218 213 193
8.651286e-001 1.761436e-001 3.127936e+000 210 205 176
1.070872e+000 1.975421e-001 3.081302e+000 130 114 83
9.126745e-001 1.982233e-001 3.055984e+000 118 98 65
1.087222e+000 2.213477e-001 3.156326e+000 124 103 72
1.112711e+000 2.378420e-001 3.176775e+000 110 94 69
8.964415e-001 2.593215e-001 3.099262e+000 208 195 171
1.119324e+000 2.513883e-001 3.206139e+000 112 105 77
1.108058e+000 2.679852e-001 3.194260e+000 227 230 201
8.978317e-001 2.904234e-001 3.096332e+000 59 48 26
1.105809e+000 2.980749e-001 3.195503e+000 209 207 182
1.171182e+000 4.098229e-001 3.185615e+000 102 90 63
9.878595e-001 4.335868e-001 3.193013e+000 220 213 184
1.085139e+000 3.133658e-001 3.153670e+000 242 236 210
8.810166e-001 4.024631e-001 3.104786e+000 216 209 181
1.162287e+000 4.363462e-001 3.187199e+000 130 115 82
9.744944e-001 1.998743e-001 3.150336e+000 107 93 64
9.066508e-001 4.353126e-001 3.114966e+000 133 113 80
9.206115e-001 2.273178e-001 3.118246e+000 227 220 191
1.119587e+000 2.595779e-001 3.191045e+000 231 226 197
1.224462e+000 3.685322e-001 3.157966e+000 255 255 247
1.179696e+000 3.114145e-001 3.163255e+000 245 233 207
1.049489e+000 3.543447e-001 3.141657e+000 226 221 199
9.464612e-001 4.119927e-001 3.114841e+000 206 201 171
9.311536e-001 2.272087e-001 3.102764e+000 226 219 190
1.049636e+000 3.760859e-001 3.143484e+000 221 219 199
9.027011e-001 4.281665e-001 3.092974e+000 143 120 86
8.990635e-001 2.172609e-001 3.093585e+000 145 122 91
9.072786e-001 2.254199e-001 3.096201e+000 222 215 186
1.119651e+000 2.700010e-001 3.130671e+000 183 177 158
9.379833e-001 4.077066e-001 3.099891e+000 63 59 50
9.376658e-001 4.238634e-001 3.086397e+000 216 215 187
9.427589e-001 2.257467e-001 3.117321e+000 131 111 76
9.356470e-001 4.040481e-001 3.090436e+000 185 174 142
9.469587e-001 4.037399e-001 3.106426e+000 222 217 188
9.129429e-001 1.861163e-001 3.051187e+000 166 151 122
1.128007e+000 1.722090e-001 3.206715e+000 219 213 184
1.061844e+000 2.513901e-001 3.147830e+000 64 60 40
1.110048e+000 3.543014e-001 3.188719e+000 220 216 189
8.652663e-001 3.979933e-001 3.098052e+000 74 64 38
1.000923e+000 6.428639e-002 3.171730e+000 184 160 134
1.159227e+000 8.473159e-002 3.003457e+000 89 84 65
1.131064e+000 2.424136e-001 3.202966e+000 173 174 165
8.568537e-001 2.186490e-001 3.426807e+000 142 128 101
8.669978e-001 4.411964e-001 3.108159e+000 96 82 56
8.669978e-001 4.411964e-001 3.108159e+000 96 82 56
9.824566e-001 6.682783e-002 3.168559e+000 237 239 225
1.062159e+000 2.317097e-001 3.157969e+000 216 215 186
1.138423e+000 2.375776e-001 3.205180e+000 249 247 249
1.138369e+000 2.375610e-001 3.205174e+000 249 247 249
1.144659e+000 2.377997e-001 3.207632e+000 239 239 243
1.144659e+000 2.377997e-001 3.207632e+000 239 239 243
1.074725e+000 2.475353e-001 3.152371e+000 232 207 177
8.963893e-001 2.506081e-001 3.090869e+000 127 114 95
1.239207e+000 3.803748e-001 3.163917e+000 130 112 88
1.175608e+000 3.760675e-001 3.173362e+000 254 255 251
9.014483e-001 4.285816e-001 3.087134e+000 133 113 80
1.129901e+000 6.932884e-002 3.214774e+000 246 240 226
1.160217e+000 2.375540e-001 3.212785e+000 249 247 254
1.166896e+000 2.387045e-001 3.212230e+000 235 238 247
1.153044e+000 2.409516e-001 3.210157e+000 186 189 210
1.147346e+000 2.411189e-001 3.208117e+000 196 197 220
1.121154e+000 3.075917e-001 3.131587e+000 185 179 160
1.095991e+000 2.981838e-001 3.148643e+000 239 232 210
1.182238e+000 3.054714e-001 3.190659e+000 231 229 202
1.037656e+000 4.155858e-001 3.129001e+000 224 220 192
1.137644e+000 1.087390e-001 2.957081e+000 8 8 9
1.132957e+000 1.085825e-001 2.955710e+000 14 10 7
1.192431e+000 2.248386e-001 3.186644e+000 167 151 118
1.131253e+000 2.175140e-001 3.199910e+000 225 220 191
1.178800e+000 2.291090e-001 3.184043e+000 200 182 154
1.175358e+000 2.378056e-001 3.216870e+000 255 253 255
1.143185e+000 2.402230e-001 3.207820e+000 197 198 217
1.149095e+000 2.411267e-001 3.209606e+000 204 203 222
1.185389e+000 2.683067e-001 3.174889e+000 58 47 42
1.187705e+000 2.761212e-001 3.194148e+000 233 226 200
1.182694e+000 3.048114e-001 3.186923e+000 119 113 85
9.517007e-001 3.547926e-001 3.106694e+000 150 142 123
1.104123e+000 4.168984e-001 3.147931e+000 173 171 144
8.779089e-001 6.641828e-002 3.120189e+000 216 220 205
9.200692e-001 7.906721e-002 3.026544e+000 35 30 15
9.487767e-001 9.224690e-002 2.949674e+000 21 14 3
1.212553e+000 1.777245e-001 3.146364e+000 152 137 110
1.050626e+000 2.210979e-001 3.144986e+000 135 117 83
1.180358e+000 2.311881e-001 3.184775e+000 126 116 105
1.149047e+000 2.368843e-001 3.208492e+000 252 254 255
