ply
format ascii 1.0
element face 0
property list uchar int vertex_indices
element vertex 886
property float x
property float y
property float z
property uchar diffuse_red
property uchar diffuse_green
property uchar diffuse_blue
end_header
5.099631e-001 1.466813e+000 -5.651296e+000 163 157 134
4.437701e-001 1.014639e-002 -6.435255e+000 61 55 31
4.852248e-001 8.154947e-003 -6.462716e+000 141 129 104
4.852632e-001 8.569850e-002 -6.447990e+000 142 131 103
4.308991e-001 1.845505e-001 -6.386143e+000 110 99 81
4.176295e-001 2.011796e-001 -6.366025e+000 112 99 80
4.424749e-001 3.932075e-001 -6.349011e+000 66 58 37
4.811991e-001 4.696854e-001 -6.358740e+000 81 65 32
5.296738e-001 5.903919e-001 -6.317696e+000 156 142 113
4.988530e-001 7.354801e-001 -6.296173e+000 164 150 123
4.652006e-001 7.460250e-001 -6.291208e+000 95 88 64
4.992323e-001 7.718825e-001 -6.289307e+000 164 150 123
3.679760e-001 8.028166e-001 -6.193223e+000 100 88 73
8.098849e+000 2.829245e+000 -3.819681e+001 254 250 222
2.102985e+000 1.702824e+000 -1.636501e+001 59 51 40
1.106111e+001 3.451803e+000 -3.723609e+001 249 253 255
1.106111e+001 3.451803e+000 -3.723609e+001 249 253 255
1.790062e+000 1.733435e+000 -1.639783e+001 46 41 35
1.044030e+001 3.890582e+000 -3.761393e+001 252 255 253
1.124462e+001 4.717622e+000 -3.723620e+001 255 253 231
9.865226e+000 5.246678e+000 -3.799931e+001 193 185 152
9.662703e+000 5.372614e+000 -3.782897e+001 218 212 150
3.720967e-001 1.032667e+000 -6.147747e+000 128 119 107
2.000133e-001 1.083784e+000 -6.330363e+000 202 181 151
2.674048e-001 1.091925e+000 -6.303737e+000 97 73 35
6.264346e-001 1.085108e+000 -6.060591e+000 236 217 194
2.477456e+000 2.288745e+000 -1.222262e+001 254 216 157
5.301497e-001 1.113464e+000 -6.025081e+000 250 221 179
2.158338e+000 2.368758e+000 -1.232299e+001 254 223 164
3.188889e+000 2.395814e+000 -1.197791e+001 92 49 9
2.489828e+000 2.438857e+000 -1.221573e+001 252 212 140
2.627583e+000 2.517499e+000 -1.220389e+001 250 210 153
2.150286e+000 2.675661e+000 -1.227931e+001 255 209 139
3.015952e-001 1.469381e+000 -5.685379e+000 93 84 67
4.752718e-001 1.463141e+000 -5.657298e+000 173 165 144
4.713463e-001 1.471684e+000 -5.652403e+000 101 91 66
6.438332e-001 3.638990e-001 -6.359780e+000 157 176 206
4.777700e-001 1.314878e+000 -5.767843e+000 203 164 117
6.093718e-001 4.320606e-001 -6.339389e+000 163 181 205
6.093718e-001 4.320606e-001 -6.339389e+000 163 181 205
1.438912e+001 7.198085e-001 -3.614372e+001 232 111 108
5.700001e-001 2.698282e-002 -6.462851e+000 17 14 15
4.445536e-001 -1.397301e-001 -6.463644e+000 9 7 12
4.641417e-001 7.477873e-001 -6.290072e+000 91 76 55
5.508480e-001 1.188119e-001 -6.421229e+000 7 4 4
1.467645e+001 1.195262e+000 -3.597608e+001 254 255 252
1.282655e+001 4.597196e+000 -3.539843e+001 250 253 248
2.133659e-001 2.482685e+000 -1.034180e+001 31 24 9
1.429059e+001 9.479043e-001 -3.540887e+001 243 113 120
1.316964e+001 3.052410e+000 -3.609446e+001 253 252 255
1.323774e+001 3.343032e+000 -3.633805e+001 187 183 164
1.228358e+001 3.510282e+000 -3.718969e+001 241 244 243
1.349512e+001 3.634540e+000 -3.601187e+001 195 214 225
1.183561e+001 3.716046e+000 -3.654177e+001 243 253 253
3.035257e-001 1.300302e+000 -9.929933e+000 57 40 13
1.325776e+000 2.239211e+000 -1.630149e+001 53 44 14
1.325776e+000 2.239211e+000 -1.630149e+001 53 44 14
1.516881e-001 2.452404e+000 -1.021537e+001 23 19 13
3.605673e-001 1.372875e+000 -5.775644e+000 216 182 134
2.980850e-001 1.457401e+000 -5.687951e+000 200 176 149
2.173853e+001 -2.769612e+000 -3.700630e+001 253 244 211
2.187764e+001 -2.630156e+000 -3.793850e+001 192 154 115
2.187764e+001 -2.630156e+000 -3.793850e+001 192 154 115
4.896443e-001 6.081074e-001 -6.327979e+000 156 142 113
3.746780e+000 7.102304e-001 -1.414332e+001 253 113 118
3.746780e+000 7.102304e-001 -1.414332e+001 253 113 118
1.326414e+001 2.528975e+000 -3.656799e+001 195 179 166
2.365204e-001 1.132249e+000 -9.984760e+000 74 63 21
1.885023e+000 1.647815e+000 -1.609237e+001 73 61 52
4.113836e+000 1.743636e+000 -1.637932e+001 238 242 243
1.320483e+001 3.349401e+000 -3.563785e+001 234 239 234
1.420851e+001 3.456224e+000 -3.665672e+001 252 252 229
1.304226e+001 3.434940e+000 -3.632254e+001 249 250 252
3.487119e-001 1.347932e+000 -9.950061e+000 53 47 36
1.292674e+000 2.101770e+000 -1.641190e+001 126 110 69
1.377961e+000 2.185117e+000 -1.634029e+001 204 192 172
8.425698e+000 4.256813e+000 -3.085827e+001 140 106 53
4.924927e-001 1.117208e+000 -6.023190e+000 236 196 144
6.393285e-001 2.515661e+000 -1.042803e+001 163 129 86
4.869688e-001 1.253488e+000 -5.780941e+000 223 175 133
2.568149e-001 1.383636e+000 -5.819420e+000 203 169 123
3.032347e-001 1.379811e+000 -5.796699e+000 201 169 124
5.859183e-002 1.514446e+000 -5.868192e+000 120 106 79
5.254306e-001 -1.527977e-001 -6.492276e+000 116 106 85
2.198441e+001 -2.380686e+000 -3.870264e+001 97 77 68
1.240025e-001 1.088857e+000 -1.030467e+001 50 42 19
1.398729e+001 3.367726e+000 -3.572451e+001 182 175 156
1.398729e+001 3.367726e+000 -3.572451e+001 182 175 156
1.398493e+001 3.603575e+000 -3.566747e+001 196 188 165
1.398493e+001 3.603575e+000 -3.566747e+001 196 188 165
1.196883e+000 2.106271e+000 -1.639068e+001 203 190 178
1.194588e+000 2.168677e+000 -1.635754e+001 131 115 75
1.194588e+000 2.168677e+000 -1.635754e+001 131 115 75
3.108869e+000 1.523140e+000 -8.752620e+000 49 29 16
5.571788e-001 1.092009e+000 -6.013554e+000 129 96 63
4.935984e-001 1.091459e+000 -6.003306e+000 129 92 50
9.439303e-002 2.351577e+000 -1.025598e+001 31 21 19
1.757718e-001 2.434242e+000 -1.025639e+001 186 173 152
1.757718e-001 2.434242e+000 -1.025639e+001 186 173 152
5.502551e-001 1.458789e+000 -5.659525e+000 131 115 90
3.843199e-001 1.472181e+000 -5.663850e+000 95 82 63
2.704289e-001 1.479530e+000 -5.694814e+000 101 89 63
5.569730e-001 1.811426e-002 -6.443613e+000 115 108 79
2.201453e+001 -1.761967e+000 -3.861392e+001 84 65 56
3.387613e-001 7.187775e-001 -6.183685e+000 66 51 30
1.401999e+001 1.087051e+000 -3.727104e+001 198 197 193
1.427750e-001 2.345777e+000 -1.026695e+001 184 167 149
1.462370e-001 2.388086e+000 -1.025177e+001 157 150 147
1.462370e-001 2.388086e+000 -1.025177e+001 157 150 147
4.659893e-001 1.456171e+000 -5.658960e+000 121 109 86
4.589874e-001 1.459632e+000 -5.657492e+000 157 144 125
3.335312e-001 1.461087e+000 -5.678256e+000 103 88 64
4.654654e-001 1.470200e+000 -5.654351e+000 97 84 66
5.488146e-001 -1.236708e-001 -6.481273e+000 16 9 4
5.411483e-001 4.704992e-002 -6.444240e+000 115 104 81
3.372616e-001 2.381535e-001 -6.289860e+000 115 102 85
5.993117e-001 5.097596e-001 -6.311593e+000 124 117 96
2.221610e+001 -2.952210e+000 -3.929705e+001 70 62 56
2.194451e+001 -1.999947e+000 -3.852205e+001 108 91 66
2.227206e+001 -1.888062e+000 -3.918411e+001 223 207 197
1.465385e-001 1.073944e+000 -1.030372e+001 114 111 94
1.465385e-001 1.073944e+000 -1.030372e+001 114 111 94
1.321841e+001 2.651769e+000 -3.612818e+001 240 234 207
1.930312e+000 1.707380e+000 -1.620707e+001 244 236 224
1.403527e+001 3.236197e+000 -3.604380e+001 253 242 215
1.133379e+001 3.631006e+000 -3.764851e+001 248 252 251
1.274192e+001 3.774691e+000 -3.649645e+001 204 212 217
3.326798e-001 1.393570e+000 -9.944910e+000 169 143 80
5.101974e-001 1.028353e+000 -6.011947e+000 230 206 162
3.544258e-001 1.062045e+000 -6.129300e+000 123 113 101
5.487321e-001 1.061962e+000 -5.994808e+000 181 163 141
2.730202e+000 2.137363e+000 -1.243106e+001 89 51 18
3.001462e+000 2.379417e+000 -1.202030e+001 188 123 55
4.768876e-001 1.258059e+000 -5.984761e+000 52 11 0
1.149799e-001 2.394552e+000 -1.025106e+001 142 133 126
4.602955e-001 1.002723e+000 -4.800274e+000 180 166 140
1.629038e-001 1.490138e+000 -5.871873e+000 197 164 119
9.446068e-002 1.488805e+000 -5.829186e+000 234 213 182
5.241141e-001 1.458425e+000 -5.656670e+000 126 112 86
1.532191e-001 1.487101e+000 -5.768142e+000 116 98 74
1.530241e-001 1.486741e+000 -5.767794e+000 116 98 74
2.318193e-001 1.474584e+000 -5.714533e+000 156 143 126
4.393373e-001 5.403490e-001 -6.328593e+000 120 111 91
1.400932e+001 1.837233e+000 -3.367507e+001 196 192 186
8.674423e-002 1.066116e+000 -1.033471e+001 58 48 39
1.387243e+001 3.199488e+000 -3.551196e+001 240 229 202
4.137034e-001 9.219082e-001 -6.257339e+000 135 131 113
1.008826e+001 3.560429e+000 -3.821295e+001 249 250 250
1.352939e+001 3.426935e+000 -3.594940e+001 204 211 205
1.130832e+001 3.718774e+000 -3.766156e+001 200 205 208
1.312537e+001 3.755611e+000 -3.643548e+001 196 207 213
3.154703e+000 1.430970e+000 -1.052876e+001 51 34 9
3.041929e+000 1.304341e+000 -8.656186e+000 151 120 77
1.422542e+000 2.245516e+000 -1.627560e+001 136 118 94
2.362853e-001 1.121191e+000 -6.331326e+000 70 46 18
2.830998e+000 2.322174e+000 -1.200262e+001 245 190 134
3.805561e+000 2.240482e+000 -9.675904e+000 104 88 54
4.665657e-001 1.266374e+000 -5.986884e+000 255 228 175
3.551918e-001 1.268082e+000 -5.799463e+000 255 238 197
3.476087e-001 1.268505e+000 -5.801507e+000 255 228 193
-6.985875e-002 1.671019e+000 -6.524593e+000 114 98 73
5.011575e-001 1.456873e+000 -5.654684e+000 112 100 82
1.843404e-001 1.473542e+000 -5.744805e+000 117 97 72
5.084822e-001 1.459923e+000 -5.657849e+000 105 93 69
3.602467e-001 1.460415e+000 -5.671351e+000 103 90 69
3.603778e-001 1.460365e+000 -5.671348e+000 103 90 69
-9.718007e-002 1.376901e+000 -5.374093e+000 219 199 163
3.067465e-001 2.333197e-001 -6.302012e+000 68 50 28
2.210228e+001 -2.952750e+000 -3.717508e+001 176 160 133
2.182277e+001 -1.975571e+000 -3.723989e+001 251 233 182
4.915493e-001 6.045292e-001 -6.328630e+000 179 165 137
5.267589e-001 6.143395e-001 -6.312362e+000 158 143 117
5.300667e-001 6.403283e-001 -6.306627e+000 19 11 0
1.307795e+001 2.446538e+000 -3.673900e+001 208 207 187
1.259689e+001 2.488036e+000 -3.707321e+001 212 208 196
1.123381e+001 2.718140e+000 -3.805512e+001 204 190 167
1.206589e+001 2.784334e+000 -3.720778e+001 218 214 190
1.206589e+001 2.784334e+000 -3.720778e+001 218 214 190
-9.598447e-003 1.187617e+000 -9.525984e+000 192 185 161
1.300936e+001 3.343105e+000 -3.629071e+001 255 254 255
4.760357e-001 9.506471e-001 -6.254974e+000 91 81 69
4.854738e-001 9.532617e-001 -6.258450e+000 152 141 115
3.344863e-001 1.350994e+000 -9.990803e+000 54 45 41
1.186293e+001 4.297498e+000 -3.737933e+001 255 239 219
1.027952e+001 4.304684e+000 -3.059259e+001 248 230 180
1.826936e-001 1.475990e+000 -5.744674e+000 177 159 135
2.397564e-001 1.468109e+000 -5.711317e+000 191 176 153
4.030663e-001 1.460568e+000 -5.662475e+000 204 190 163
2.921519e-001 1.464418e+000 -5.688624e+000 128 111 83
5.468062e-001 -4.494272e-002 -6.458039e+000 7 6 1
1.443660e+001 -4.002210e+000 -1.854251e+001 132 128 125
8.473413e-002 1.505533e+000 -5.837019e+000 117 110 84
1.384975e+001 -4.162395e+000 -1.843423e+001 249 238 158
1.419700e+001 -3.765337e+000 -1.964853e+001 91 64 44
1.439875e+001 -3.471061e+000 -1.844938e+001 80 70 57
1.458197e+001 -3.517670e+000 -1.861987e+001 80 70 57
1.458197e+001 -3.517670e+000 -1.861987e+001 80 70 57
1.416559e+001 -3.120423e+000 -1.814866e+001 229 221 191
1.416007e+001 -3.116708e+000 -1.814272e+001 229 221 191
1.423275e+001 -3.223278e+000 -1.956241e+001 93 70 55
2.684862e-001 1.331053e+000 -6.111891e+000 179 138 84
1.366956e-001 1.405565e+000 -5.924609e+000 192 164 117
1.366956e-001 1.405565e+000 -5.924609e+000 192 164 117
6.382946e-001 1.490590e-001 -6.396448e+000 14 12 8
1.412668e+001 -4.385054e+000 -1.939318e+001 255 241 215
1.415844e+001 -4.363204e+000 -1.966779e+001 135 130 129
1.411187e+001 -3.938450e+000 -1.861735e+001 254 239 158
4.797240e-001 1.081931e+000 -6.015179e+000 251 225 180
2.432214e+000 2.301927e+000 -1.222112e+001 237 197 135
2.423313e+000 2.421044e+000 -1.222595e+001 254 208 144
2.364183e+000 2.471582e+000 -1.224254e+001 69 38 18
2.364183e+000 2.471582e+000 -1.224254e+001 69 38 18
2.364183e+000 2.471582e+000 -1.224254e+001 69 38 18
2.356290e+000 2.701070e+000 -1.193636e+001 235 216 184
1.059631e-001 1.497197e+000 -5.811512e+000 140 128 106
6.294404e-001 -8.596039e-002 -6.437069e+000 106 96 71
1.430204e+001 -2.722890e+000 -1.805881e+001 125 116 96
2.212370e+000 2.284040e+000 -1.241258e+001 248 189 121
1.424657e-001 1.418854e+000 -5.912849e+000 248 216 165
2.880439e-002 1.514573e+000 -5.919346e+000 97 85 69
5.779247e-001 -4.531734e-002 -6.454213e+000 116 104 74
2.384333e+000 2.315682e+000 -1.250955e+001 33 8 7
2.190376e+000 2.364732e+000 -1.236601e+001 224 179 115
2.368646e+000 2.409955e+000 -1.230179e+001 229 192 127
2.371849e+000 2.457394e+000 -1.226121e+001 59 34 12
2.171011e+000 2.529335e+000 -1.224856e+001 25 9 5
2.233750e+000 2.604442e+000 -1.219514e+001 195 144 68
2.267681e+000 2.591963e+000 -1.211582e+001 204 164 102
2.300879e+000 2.652050e+000 -1.220479e+001 84 39 18
9.893759e-002 1.488234e+000 -5.971378e+000 190 161 117
9.929127e-002 1.488316e+000 -5.971758e+000 190 161 117
3.067526e-001 1.464735e+000 -5.685449e+000 108 100 79
9.903516e-002 1.487856e+000 -5.821013e+000 216 200 165
1.427131e+001 -4.302517e+000 -1.831131e+001 167 158 151
1.427036e+001 -4.302605e+000 -1.831051e+001 167 158 151
1.433921e+001 -4.416806e+000 -1.940774e+001 101 94 79
1.446767e+001 -4.459562e+000 -1.953596e+001 101 94 79
1.444316e+001 -4.322510e+000 -2.009357e+001 246 226 202
1.436007e+001 -4.080878e+000 -1.834112e+001 133 118 95
1.438153e+001 -3.817940e+000 -1.998423e+001 68 46 44
1.428095e+001 -3.510104e+000 -1.816423e+001 146 130 107
1.421677e+001 -3.489408e+000 -1.810490e+001 146 130 107
1.427977e+001 -3.234245e+000 -1.816385e+001 243 229 202
1.405530e+001 -3.191418e+000 -1.824025e+001 133 115 93
1.405530e+001 -3.191418e+000 -1.824025e+001 133 115 93
2.146558e+000 2.318304e+000 -1.233687e+001 81 34 2
2.309290e+000 2.390201e+000 -1.238585e+001 156 92 30
2.309290e+000 2.390201e+000 -1.238585e+001 156 92 30
2.264128e+000 2.414384e+000 -1.236156e+001 238 205 147
2.547665e+000 2.441727e+000 -1.227282e+001 195 133 60
2.547665e+000 2.441727e+000 -1.227282e+001 195 133 60
2.069487e+000 2.445577e+000 -1.216977e+001 234 198 134
2.279239e+000 2.508249e+000 -1.220566e+001 98 52 8
2.576422e-001 1.224804e+000 -6.164228e+000 191 158 112
2.291012e+000 2.610289e+000 -1.208564e+001 101 64 38
2.418600e+000 2.644294e+000 -1.219479e+001 227 180 113
2.265682e+000 2.673705e+000 -1.218957e+001 191 145 87
2.252521e+000 2.702516e+000 -1.214098e+001 89 44 21
1.396460e-001 1.495944e+000 -5.898213e+000 197 166 119
4.994041e-002 1.504604e+000 -5.882017e+000 106 90 65
1.407066e-001 1.483690e+000 -5.780268e+000 134 119 88
4.342351e-001 -3.211950e-002 -6.618879e+000 75 73 61
5.908034e-001 2.126410e-001 -6.380116e+000 136 129 103
1.457652e+001 -4.345658e+000 -1.962949e+001 126 113 101
1.436859e+001 -3.912287e+000 -2.005411e+001 236 222 199
1.448869e+001 -3.758634e+000 -1.991613e+001 61 39 34
1.406208e+001 -2.188020e+000 -1.796949e+001 248 239 208
1.437286e+001 -1.689044e+000 -1.812968e+001 251 251 225
1.442080e+001 -1.589966e+000 -1.938461e+001 55 41 35
1.410176e+001 -1.043362e+000 -1.783855e+001 148 127 94
2.371689e+000 2.289644e+000 -1.238893e+001 184 147 95
2.366525e+000 2.503391e+000 -1.227059e+001 36 10 7
2.482374e+000 2.514867e+000 -1.217556e+001 254 223 165
2.377156e+000 2.564036e+000 -1.220756e+001 104 55 12
2.377156e+000 2.564036e+000 -1.220756e+001 104 55 12
2.496020e+000 2.640954e+000 -1.211837e+001 185 137 69
1.804259e+000 2.556565e+000 -1.071185e+001 214 199 168
1.804259e+000 2.556565e+000 -1.071185e+001 214 199 168
1.411939e-001 1.398964e+000 -5.917765e+000 243 210 165
1.619210e-001 1.397698e+000 -5.891771e+000 171 137 93
1.401913e+001 -4.193309e+000 -1.846938e+001 149 121 81
2.437959e+000 2.274479e+000 -1.243732e+001 229 192 140
2.433271e+000 2.399653e+000 -1.228686e+001 227 184 111
2.172604e+000 2.404191e+000 -1.229833e+001 87 51 7
2.127044e+000 2.434460e+000 -1.224866e+001 117 67 11
2.257848e+000 2.446109e+000 -1.214878e+001 221 168 110
2.310988e+000 2.588740e+000 -1.213252e+001 223 189 144
2.310988e+000 2.588740e+000 -1.213252e+001 223 189 144
1.819896e+000 2.627729e+000 -1.225082e+001 246 232 202
2.386205e+000 2.723502e+000 -1.187746e+001 154 131 101
9.317629e-002 1.497214e+000 -5.827559e+000 174 162 138
5.691590e-001 3.222197e-001 -6.366461e+000 91 82 71
1.436483e+001 -2.187572e+000 -1.978043e+001 123 98 74
6.425068e-001 7.682098e-001 -6.237595e+000 143 129 100
3.016243e+000 1.176914e+000 -1.040559e+001 72 68 52
2.166953e+000 2.302935e+000 -1.232717e+001 240 196 149
2.370648e+000 2.342672e+000 -1.236330e+001 212 166 108
2.266304e+000 2.370942e+000 -1.238962e+001 222 190 152
2.348823e+000 2.433364e+000 -1.238949e+001 247 199 137
2.367069e+000 2.595849e+000 -1.224208e+001 60 14 0
2.123655e+000 2.613252e+000 -1.218321e+001 248 208 137
2.384281e+000 2.629462e+000 -1.219064e+001 58 12 0
2.324140e+000 2.641133e+000 -1.212696e+001 248 199 146
1.807182e+000 2.671823e+000 -1.223758e+001 245 230 197
2.302573e+000 2.748559e+000 -1.195924e+001 237 193 133
4.952926e-001 1.256922e+000 -5.777027e+000 248 230 182
1.198183e-001 1.482886e+000 -5.800260e+000 190 169 138
6.001441e-002 1.496044e+000 -5.858725e+000 146 130 104
1.435934e+001 -4.306751e+000 -2.012960e+001 63 52 40
4.874958e-001 5.333671e-001 -6.347435e+000 152 138 106
5.364157e-001 5.909389e-001 -6.313891e+000 94 83 53
2.357591e+000 2.532204e+000 -1.218439e+001 254 229 168
2.175255e+000 2.558784e+000 -1.225039e+001 233 195 153
2.388567e+000 2.616029e+000 -1.220810e+001 251 203 149
2.489334e+000 2.631757e+000 -1.215862e+001 255 213 138
1.548344e+000 2.722276e+000 -1.331739e+001 110 83 54
1.576765e+000 2.684022e+000 -1.333380e+001 32 23 1
1.404677e+000 2.754907e+000 -1.323968e+001 74 52 6
2.419575e+000 2.559891e+000 -1.224492e+001 250 220 150
8.039569e-001 1.282320e+000 -6.308391e+000 115 103 84
5.605685e-001 3.374388e-001 -5.908960e+000 159 179 197
-1.047056e+000 9.784201e-001 -8.721410e+000 188 153 87
8.157777e-001 1.285673e+000 -6.311602e+000 247 218 174
-1.690968e-001 1.607895e+000 -6.372932e+000 109 106 101
5.346314e-001 1.590987e-001 -6.650930e+000 139 131 108
4.931438e-001 7.811763e-001 -6.291133e+000 151 138 112
-1.071355e+000 9.595748e-001 -8.710660e+000 152 125 75
5.252142e-001 1.042016e+000 -6.016254e+000 231 215 177
5.016095e-001 1.457297e+000 -5.655612e+000 109 94 75
1.021853e-001 1.389319e+000 -5.422492e+000 68 60 49
3.621015e-001 4.511183e-001 -6.258405e+000 115 98 81
4.161185e-001 4.520871e-001 -6.304832e+000 117 105 81
4.416332e-001 6.182126e-001 -6.295118e+000 102 90 66
4.513945e-001 7.837879e-001 -6.269149e+000 94 86 66
-1.312055e+000 1.740449e+000 -9.200091e+000 77 56 17
8.807708e-001 1.557075e+000 -6.274617e+000 215 193 151
4.918078e-001 1.473641e+000 -5.650923e+000 159 147 121
2.168394e+001 -2.756605e+000 -3.692203e+001 253 244 211
2.176085e+001 -1.884818e+000 -3.726146e+001 254 237 165
2.172995e+001 -1.883389e+000 -3.722806e+001 254 237 165
5.135434e-001 1.073953e+000 -6.008049e+000 56 35 22
2.201774e+001 -1.575907e+000 -3.718622e+001 255 241 214
1.349465e+000 2.120647e+000 -1.638605e+001 198 186 174
3.141779e+000 2.337718e+000 -1.205316e+001 247 199 137
5.142701e-001 1.853420e-001 -6.412046e+000 131 120 97
2.214277e+001 -3.045202e+000 -3.841223e+001 120 106 97
3.002697e+000 2.379630e+000 -1.202526e+001 188 123 55
2.940284e+000 2.386973e+000 -1.200736e+001 193 125 62
2.940284e+000 2.386973e+000 -1.200736e+001 193 125 62
5.186007e-001 1.464312e+000 -5.730566e+000 148 119 73
5.141572e-001 6.891288e-001 -6.300983e+000 95 79 54
1.439312e+001 2.376969e+000 -3.590764e+001 253 251 235
2.548172e-001 1.075499e+000 -6.302531e+000 198 175 150
5.305533e-001 1.040289e+000 -6.013572e+000 85 65 39
3.133223e+000 2.232827e+000 -1.222024e+001 253 215 169
2.721873e-001 1.465899e+000 -5.695061e+000 100 82 58
5.335072e-001 1.168828e-001 -6.419658e+000 133 120 95
5.116945e-001 8.071661e-001 -6.276034e+000 147 131 106
3.240457e+000 2.254580e+000 -1.201216e+001 255 192 127
3.126997e+000 2.287381e+000 -1.202309e+001 253 206 147
3.214314e+000 2.352445e+000 -1.195249e+001 164 104 42
6.531535e-001 1.211869e+000 -6.071141e+000 196 161 128
4.305409e-001 5.472532e-001 -6.546220e+000 72 59 40
2.875553e-001 1.361654e+000 -5.851306e+000 247 225 172
4.196896e-001 5.487975e-001 -6.534999e+000 67 54 35
6.220198e-001 -9.922156e-002 -6.444055e+000 111 99 71
5.461039e-001 -4.415325e-002 -6.457029e+000 7 6 1
3.142809e+000 2.503909e+000 -1.206673e+001 156 110 44
6.272098e-001 -4.513308e-002 -6.443844e+000 117 99 63
6.371397e-001 2.334888e-001 -6.362439e+000 130 122 86
2.573446e-001 1.123664e+000 -6.319001e+000 50 24 6
2.811749e+000 2.481437e+000 -1.210799e+001 217 165 98
2.813431e+000 2.626988e+000 -1.198831e+001 247 207 138
2.162984e-001 1.476481e+000 -5.724923e+000 82 68 55
4.302778e-001 2.046683e-001 -6.569371e+000 98 82 61
2.778477e+000 2.400739e+000 -1.214980e+001 2 4 1
2.999228e+000 2.587359e+000 -1.204256e+001 44 23 17
2.978670e+000 2.655711e+000 -1.205955e+001 242 202 138
3.138547e+000 2.663009e+000 -1.201922e+001 41 16 8
4.901816e-002 1.536503e+000 -6.146969e+000 221 196 155
4.197044e+000 1.796290e+000 -1.291280e+001 110 89 72
4.197044e+000 1.796290e+000 -1.291280e+001 110 89 72
3.034785e-001 1.118313e+000 -6.275739e+000 53 43 23
3.016181e+000 2.632131e+000 -1.194377e+001 230 177 106
2.796665e+000 2.704020e+000 -1.191819e+001 213 159 87
4.328698e-001 -1.028421e-001 -6.630377e+000 90 83 56
3.746703e-001 3.390516e-001 -6.362845e+000 120 108 81
4.298871e-001 4.920592e-001 -6.472787e+000 91 79 60
4.095712e-001 9.144018e-001 -6.262731e+000 24 24 24
4.768090e-001 1.050862e+000 -6.045198e+000 167 148 115
2.714541e-001 1.117674e+000 -6.292710e+000 226 204 156
2.726387e+000 2.215043e+000 -1.216444e+001 168 103 43
2.630234e-001 1.150132e+000 -6.170864e+000 228 195 149
2.879549e+000 2.392125e+000 -1.218253e+001 62 27 14
2.879549e+000 2.392125e+000 -1.218253e+001 62 27 14
3.130894e+000 2.387873e+000 -1.212048e+001 213 152 93
2.729022e+000 2.653714e+000 -1.200129e+001 223 163 103
3.132959e+000 2.681737e+000 -1.201626e+001 22 6 3
3.132959e+000 2.681737e+000 -1.201626e+001 22 6 3
2.758304e+000 2.718374e+000 -1.207947e+001 57 24 5
5.361381e+000 2.014299e+000 -8.310673e+000 108 99 90
4.908243e-001 1.260399e+000 -5.799282e+000 180 138 95
5.597163e-001 -1.169867e-001 -6.454289e+000 27 22 12
6.275583e-001 -1.357004e-001 -6.450073e+000 89 91 75
4.374277e-001 -7.774058e-002 -6.610327e+000 87 80 68
4.360744e-001 -7.730613e-002 -6.609216e+000 87 80 68
5.107667e+000 8.567409e-001 -8.708210e+000 141 119 86
2.714285e-001 1.105145e+000 -6.295869e+000 209 186 152
2.792691e-001 1.120319e+000 -6.283927e+000 67 53 17
4.946742e-001 1.091540e+000 -6.000762e+000 140 105 67
2.550536e-001 1.149892e+000 -6.202623e+000 63 39 16
3.193597e+000 2.257887e+000 -1.218985e+001 214 158 91
3.171461e+000 2.435101e+000 -1.210731e+001 41 8 4
2.936785e+000 2.502006e+000 -1.206060e+001 22 6 4
2.730656e+000 2.510848e+000 -1.211395e+001 30 7 9
2.988227e+000 2.633614e+000 -1.211765e+001 202 155 79
2.692588e+000 2.606909e+000 -1.205951e+001 236 187 123
3.003041e+000 2.613990e+000 -1.200850e+001 33 6 5
2.755518e+000 2.619882e+000 -1.202771e+001 59 26 7
2.755518e+000 2.619882e+000 -1.202771e+001 59 26 7
2.865227e+000 2.720363e+000 -1.188485e+001 175 127 73
5.371749e+000 2.001259e+000 -8.279825e+000 15 11 13
2.969013e+000 2.545153e+000 -1.062149e+001 126 109 83
2.969013e+000 2.545153e+000 -1.062149e+001 126 109 83
2.625856e+000 2.560039e+000 -1.066720e+001 172 156 131
3.790808e-001 1.470121e+000 -6.497916e+000 109 86 60
1.748898e-001 1.390910e+000 -5.881803e+000 251 219 170
3.568095e-001 1.459022e+000 -5.671045e+000 98 88 63
-1.619105e-003 1.526519e+000 -5.984312e+000 107 95 68
8.754596e-002 1.489575e+000 -5.837628e+000 204 188 152
8.597113e-002 1.495376e+000 -5.836080e+000 121 111 83
4.267598e-001 -1.004431e-001 -6.611508e+000 75 69 50
6.400111e-001 1.490046e-001 -6.380870e+000 25 24 23
5.231618e-001 4.599360e-001 -6.339897e+000 133 122 92
3.135247e+000 2.334100e+000 -1.223002e+001 227 183 120
3.152882e+000 2.356485e+000 -1.216185e+001 76 31 6
2.739307e+000 2.464849e+000 -1.207468e+001 52 22 9
2.770222e+000 2.477372e+000 -1.199682e+001 255 211 150
3.074521e+000 2.510801e+000 -1.196204e+001 242 195 128
2.958485e+000 2.570647e+000 -1.207431e+001 19 5 0
2.645306e+000 2.609968e+000 -1.208695e+001 248 192 125
2.905791e+000 2.626463e+000 -1.203429e+001 89 41 19
2.686046e+000 2.720003e+000 -1.202033e+001 229 178 111
2.537074e+000 2.542538e+000 -1.059267e+001 219 203 177
2.559490e+000 2.562659e+000 -1.056149e+001 231 211 187
3.738124e-001 1.323599e+000 -5.998581e+000 252 218 170
2.802521e-001 1.483998e+000 -6.301227e+000 221 195 146
2.806193e-001 1.498963e+000 -6.301203e+000 205 181 135
1.556987e-001 1.393758e+000 -5.895750e+000 241 209 160
5.083807e-001 1.466828e+000 -5.655142e+000 171 161 134
3.973297e-001 1.459542e+000 -5.663086e+000 186 172 143
-1.923144e-002 1.551529e+000 -6.080320e+000 80 68 51
4.845677e-001 1.473237e+000 -5.655367e+000 106 99 73
4.377107e-001 1.732842e-001 -6.556900e+000 85 82 66
4.220588e-001 7.528283e-001 -6.466856e+000 95 86 69
4.201386e+000 1.866209e+000 -1.275648e+001 84 66 48
4.150322e+000 1.955265e+000 -1.292388e+001 64 49 40
3.139732e+000 2.237366e+000 -1.237550e+001 77 38 1
3.139732e+000 2.237366e+000 -1.237550e+001 77 38 1
3.142162e+000 2.389622e+000 -1.199030e+001 191 143 97
2.898027e+000 2.408136e+000 -1.207028e+001 193 131 57
3.098325e+000 2.479526e+000 -1.203513e+001 251 203 145
3.031632e+000 2.478967e+000 -1.192417e+001 164 112 51
3.031632e+000 2.478967e+000 -1.192417e+001 164 112 51
2.664538e+000 2.625654e+000 -1.207229e+001 178 119 51
5.366099e+000 1.962231e+000 -8.296222e+000 33 21 26
2.505115e+000 2.752400e+000 -1.191036e+001 150 121 93
2.937693e+000 2.554521e+000 -1.056752e+001 193 177 151
2.147147e+000 2.543468e+000 -1.062609e+001 249 230 198
2.300605e-002 1.685420e+000 -6.612378e+000 86 69 40
9.987844e-002 1.501041e+000 -5.969377e+000 176 147 103
9.987844e-002 1.501041e+000 -5.969377e+000 176 147 103
5.692756e-001 1.473717e+000 -5.661008e+000 92 78 51
9.433873e-002 1.488387e+000 -5.827565e+000 223 207 171
1.536507e-001 1.487425e+000 -5.768321e+000 108 94 68
9.439928e-002 1.504007e+000 -5.830471e+000 112 100 74
5.644992e-001 -1.335278e-001 -6.471364e+000 12 7 2
4.210089e-001 -6.215418e-003 -6.607787e+000 84 81 66
5.079281e-001 8.311502e-001 -6.267566e+000 148 134 107
2.082903e-001 1.086989e+000 -6.324002e+000 236 213 164
2.431216e-001 1.139427e+000 -6.307637e+000 33 6 3
2.837762e+000 2.267085e+000 -1.220462e+001 244 190 133
3.101091e+000 2.334508e+000 -1.223755e+001 227 182 128
2.650473e+000 2.335566e+000 -1.212085e+001 238 179 118
3.236545e+000 2.361387e+000 -1.210654e+001 232 187 130
2.974049e+000 2.457899e+000 -1.188572e+001 255 209 154
3.011032e+000 2.551549e+000 -1.213742e+001 70 26 0
2.564646e-001 1.232108e+000 -6.190127e+000 177 145 104
3.026814e+000 2.494467e+000 -1.183850e+001 228 178 119
2.604711e+000 2.594458e+000 -1.212511e+001 196 129 56
2.759294e+000 2.679048e+000 -1.195634e+001 53 14 0
2.778942e+000 2.712243e+000 -1.188462e+001 255 210 157
4.899193e-001 1.212407e+000 -5.787923e+000 74 44 8
4.899193e-001 1.212407e+000 -5.787923e+000 74 44 8
2.508436e-001 1.332885e+000 -6.197529e+000 224 189 147
2.641037e+000 2.585066e+000 -1.058637e+001 192 172 145
3.580320e-001 1.273301e+000 -5.831802e+000 201 173 131
2.794571e-001 1.386365e+000 -6.084266e+000 247 215 167
2.204567e-001 1.468169e+000 -5.719885e+000 98 83 58
1.769233e-001 1.478857e+000 -5.749745e+000 172 158 130
1.612484e-001 1.485980e+000 -5.761604e+000 121 106 82
1.046722e-002 1.545023e+000 -5.974148e+000 91 80 50
1.216984e-001 1.497202e+000 -5.796611e+000 168 158 133
-5.315694e-001 1.468478e+000 -5.772117e+000 46 48 45
3.168970e-001 4.797555e-001 -6.243902e+000 88 73 44
5.063088e-001 5.957275e-001 -6.319082e+000 149 136 104
5.063088e-001 5.957275e-001 -6.319082e+000 149 136 104
4.249507e-001 9.205787e-001 -6.471399e+000 81 74 59
4.705525e-001 1.047544e+000 -6.060005e+000 63 48 24
4.292162e-001 1.123728e+000 -6.371173e+000 96 87 70
3.189846e+000 2.234350e+000 -1.229785e+001 90 50 9
3.050640e+000 2.301650e+000 -1.233441e+001 46 8 0
2.578122e+000 2.508206e+000 -1.218170e+001 248 194 134
2.830168e+000 2.486757e+000 -1.203482e+001 255 204 137
3.125641e+000 2.511343e+000 -1.191441e+001 238 180 121
2.800243e+000 2.637046e+000 -1.197609e+001 255 231 164
2.666763e+000 2.752997e+000 -1.205120e+001 249 197 133
2.545821e-001 1.328851e+000 -6.173946e+000 161 128 85
2.619307e+000 2.549520e+000 -1.054031e+001 145 128 103
2.519526e-001 1.343877e+000 -6.216700e+000 131 103 64
2.098994e-001 1.388243e+000 -5.849422e+000 195 163 114
-3.002318e-003 1.530239e+000 -5.988654e+000 79 67 44
1.263961e-001 1.482982e+000 -5.797950e+000 222 201 170
2.391517e-002 1.518659e+000 -5.926395e+000 176 165 147
4.171058e-001 -2.226815e-002 -6.415937e+000 80 71 56
5.638427e-001 8.004313e-002 -6.436753e+000 150 137 113
4.172068e-001 4.021804e-001 -6.358653e+000 88 77 55
3.370985e-001 1.321816e-001 -6.344201e+000 28 26 27
4.884140e-001 1.465323e+000 -5.655991e+000 146 139 123
4.243656e-001 1.117200e-001 -6.409269e+000 2 1 0
5.163406e-001 1.052905e+000 -6.007129e+000 212 198 158
6.903394e-001 1.483399e+000 -5.762866e+000 200 182 157
4.917622e-001 1.288727e-001 -6.429820e+000 166 149 121
4.930177e-001 1.786598e-001 -6.423942e+000 161 144 115
4.684868e-001 8.584581e-001 -6.273089e+000 92 80 68
-1.087615e+000 1.158386e+000 -8.693085e+000 46 20 3
6.714728e-001 1.197708e+000 -6.099842e+000 182 158 122
7.117766e-001 1.388960e+000 -5.828215e+000 176 142 104
1.075622e+000 1.707764e+000 -6.605476e+000 210 179 133
5.922575e-001 4.231867e-002 -6.472285e+000 152 174 217
4.753054e-001 4.668048e-002 -6.449741e+000 87 74 57
4.502235e-001 6.041804e-001 -6.298216e+000 135 120 97
4.852945e-001 7.686613e-001 -6.294541e+000 164 153 123
1.071374e+000 2.699964e+000 -1.127074e+001 220 199 168
-3.004501e-001 1.626711e+000 -6.459190e+000 203 185 165
5.841114e-001 -1.232996e-001 -6.463667e+000 161 145 128
4.241089e-001 -5.699513e-002 -6.405676e+000 7 4 5
5.304053e-001 4.328213e-002 -6.444465e+000 152 136 110
4.158998e-001 2.063995e-001 -6.356587e+000 85 73 51
5.230003e-001 3.464355e-001 -6.370607e+000 168 154 128
-1.638434e+000 4.253142e-001 -9.136086e+000 198 204 227
4.867199e-001 6.457721e-001 -6.322165e+000 179 165 136
-1.657879e+000 4.810157e-001 -9.123721e+000 86 69 16
4.849648e-001 7.923419e-001 -6.291930e+000 187 176 144
-1.159876e+000 1.177609e+000 -8.760389e+000 176 132 65
6.629387e-001 1.144116e+000 -6.420071e+000 21 14 6
5.993048e-001 1.116322e+000 -6.051135e+000 108 82 49
6.599074e-001 1.141446e+000 -6.094764e+000 138 116 92
3.267056e-001 1.374469e+000 -5.783504e+000 230 198 151
7.785094e-001 1.545899e+000 -6.241981e+000 95 81 70
9.034042e-001 1.507901e+000 -5.889580e+000 56 46 36
5.006337e-001 -1.436929e-001 -6.501269e+000 17 12 8
4.828659e-001 -1.351038e-001 -6.472104e+000 15 11 8
5.318852e-001 5.692044e-001 -6.330085e+000 45 36 29
4.635764e-001 6.247483e-001 -6.313540e+000 119 105 79
4.635764e-001 6.247483e-001 -6.313540e+000 119 105 79
-1.665200e+000 4.355285e-001 -9.122764e+000 97 81 35
4.761545e-001 7.837598e-001 -6.288189e+000 75 62 38
4.670767e-001 8.357709e-001 -6.265415e+000 77 64 47
4.811475e-001 9.565346e-001 -6.255442e+000 13 10 1
5.681669e-001 2.301778e+000 -1.368447e+001 135 111 79
4.887187e-001 1.083445e+000 -6.003210e+000 253 238 205
5.712201e-001 1.093589e+000 -6.023276e+000 137 104 70
3.904202e-001 1.094955e+000 -6.025343e+000 165 132 91
6.489376e-001 1.169605e+000 -6.077748e+000 233 204 169
1.457163e+000 2.724115e+000 -1.321483e+001 138 107 56
6.586144e-001 1.205770e+000 -6.074319e+000 149 124 94
7.741014e-001 1.448683e+000 -6.262364e+000 118 98 74
7.816982e-001 1.456887e+000 -6.264363e+000 249 215 167
7.732541e-001 1.461138e+000 -6.260127e+000 113 96 71
7.803966e-001 1.474309e+000 -6.266718e+000 239 210 162
7.740444e-001 1.476816e+000 -6.254047e+000 111 95 71
8.699605e-001 1.555652e+000 -6.269510e+000 118 100 80
7.127705e-001 1.471831e+000 -5.721359e+000 88 75 60
4.819424e-001 -9.386076e-002 -6.477210e+000 86 75 55
5.559219e-001 2.187997e-002 -6.430239e+000 135 127 108
4.315453e-001 6.548229e-002 -6.406629e+000 62 49 32
4.728754e-001 9.615860e-002 -6.429253e+000 124 112 90
4.873251e-001 1.427592e-001 -6.435238e+000 172 156 128
4.087134e-001 4.419891e-001 -6.301572e+000 80 67 47
4.292310e-001 4.791122e-001 -6.311067e+000 118 110 90
-1.624266e+000 4.444945e-001 -9.158519e+000 100 86 32
4.602409e-001 8.042356e-001 -6.279767e+000 59 51 38
4.863251e-001 8.362174e-001 -6.279730e+000 170 155 126
-9.850470e-001 1.020463e+000 -8.696703e+000 48 26 2
-1.776241e+000 1.234963e+000 -8.688988e+000 220 188 137
-1.776241e+000 1.234963e+000 -8.688988e+000 220 188 137
4.877400e-001 1.028017e+000 -6.009450e+000 228 211 168
1.338179e+000 2.628186e+000 -1.338895e+001 55 25 2
1.401011e+000 2.650156e+000 -1.337986e+001 66 31 5
1.433446e+000 2.715496e+000 -1.329466e+001 64 43 4
6.510228e-001 1.201177e+000 -6.074955e+000 225 193 155
7.817102e-001 1.389789e+000 -6.277551e+000 238 213 171
6.664393e-001 1.338817e+000 -5.808335e+000 205 173 134
4.824968e-001 -1.560767e-001 -6.494394e+000 66 58 46
4.802405e-001 -6.701356e-002 -6.471204e+000 65 54 30
4.711185e-001 1.496129e-001 -6.411325e+000 37 24 8
4.799196e-001 4.927337e-001 -6.353831e+000 95 79 54
4.523988e-001 5.168467e-001 -6.327347e+000 80 68 42
-1.615506e+000 4.659059e-001 -9.154930e+000 203 177 116
3.649509e-001 6.696598e-001 -6.217494e+000 66 55 37
3.534054e-001 6.926219e-001 -6.201887e+000 125 109 86
3.534054e-001 6.926219e-001 -6.201887e+000 125 109 86
3.356856e-001 7.974358e-001 -6.165823e+000 77 60 42
-1.083116e+000 9.162921e-001 -8.787925e+000 173 151 91
-9.849895e-001 1.002345e+000 -8.716526e+000 120 101 49
-1.092130e+000 1.014924e+000 -8.757530e+000 184 143 87
-1.180405e+000 1.027639e+000 -8.800545e+000 207 168 116
-1.180405e+000 1.027639e+000 -8.800545e+000 207 168 116
-1.371966e+000 1.053596e+000 -8.763465e+000 205 175 103
-1.776639e+000 1.217387e+000 -8.693884e+000 52 25 0
4.756549e-001 9.955873e-001 -6.008709e+000 199 175 146
4.860810e-001 1.033142e+000 -5.999200e+000 90 68 38
5.727650e-001 1.112847e+000 -6.036138e+000 117 82 54
1.456351e+000 2.606954e+000 -1.318161e+001 79 57 11
-2.654470e+000 2.485821e+000 -1.043632e+001 28 15 6
1.020526e+000 2.680125e+000 -1.118289e+001 213 193 158
-1.937872e+000 2.354611e+000 -9.882178e+000 237 204 171
-2.156497e+000 2.534693e+000 -1.051806e+001 36 19 6
-4.083265e-001 1.637815e+000 -6.521153e+000 185 186 169
1.069592e+000 1.674862e+000 -6.635560e+000 207 200 179
4.519274e-001 -1.685063e-002 -6.443637e+000 114 102 86
4.827870e-001 3.711251e-002 -6.452183e+000 77 71 45
4.392095e-001 7.930324e-002 -6.411637e+000 123 115 94
3.185077e-001 2.139206e-001 -6.283834e+000 176 162 141
4.862138e-001 5.476759e-001 -6.339420e+000 164 149 120
4.368014e-001 5.956330e-001 -6.293926e+000 69 57 33
4.388434e-001 6.144542e-001 -6.290122e+000 81 67 42
-1.467785e+000 3.939288e-001 -9.349977e+000 89 95 85
3.720681e-001 6.911440e-001 -6.217980e+000 82 69 52
3.430000e-001 7.519069e-001 -6.177950e+000 121 105 89
3.621933e-001 7.642205e-001 -6.196701e+000 66 53 34
3.415121e-001 7.964823e-001 -6.171230e+000 120 104 85
6.775673e-002 1.016917e+000 -1.025345e+001 42 32 23
5.541185e-001 1.020522e+000 -6.215881e+000 152 137 118
5.504813e-001 1.038463e+000 -6.004110e+000 93 75 53
2.032858e-001 1.094019e+000 -6.336506e+000 81 61 32
1.502145e+000 2.742657e+000 -1.320457e+001 120 102 75
6.688464e-001 1.223676e+000 -5.839416e+000 87 62 32
-2.813906e+000 2.542012e+000 -1.037252e+001 41 21 0
9.309293e-001 1.720930e+000 -6.830053e+000 108 110 117
8.698532e-001 1.498185e+000 -5.846645e+000 64 48 32
6.911250e-001 1.468001e+000 -5.703900e+000 118 108 90
5.088753e-001 1.457249e+000 -5.652294e+000 115 103 81
7.481113e-001 1.490805e+000 -5.737257e+000 92 79 60
4.539760e-001 -7.646092e-002 -6.445288e+000 114 108 94
4.422144e-001 -7.225581e-002 -6.438460e+000 53 48 29
3.799366e-001 -5.827179e-002 -6.380565e+000 74 66 45
4.780680e-001 -7.724429e-002 -6.471606e+000 122 113 90
4.372776e-001 1.310348e-001 -6.386095e+000 52 43 33
4.468627e-001 1.483656e-001 -6.397424e+000 121 109 87
4.215787e-001 3.025847e-001 -6.342276e+000 127 112 89
4.639448e-001 6.200591e-001 -6.310977e+000 126 111 90
4.791626e-001 7.134636e-001 -6.305201e+000 69 57 35
4.826493e-001 7.165162e-001 -6.305130e+000 173 159 133
4.833142e-001 7.874063e-001 -6.290267e+000 175 164 134
6.419695e-001 8.064117e-001 -6.229680e+000 168 152 127
3.304147e-001 8.017166e-001 -6.160123e+000 123 108 87
2.110155e-001 1.072521e+000 -6.338705e+000 61 43 19
6.572978e-001 1.112429e+000 -6.368070e+000 162 149 126
1.469189e+000 2.699306e+000 -1.317627e+001 82 54 13
-1.945735e+000 2.284751e+000 -9.910474e+000 170 146 131
5.880212e-001 1.211422e+000 -5.799172e+000 253 226 194
6.156043e-001 1.216404e+000 -5.809301e+000 101 77 42
6.156043e-001 1.216404e+000 -5.809301e+000 101 77 42
-2.686606e+000 2.489273e+000 -1.041668e+001 35 5 0
8.880963e-001 1.505021e+000 -5.871152e+000 144 135 118
4.068647e-001 1.464061e+000 -5.667157e+000 205 191 162
5.611224e-001 1.036327e-001 -6.419226e+000 130 115 86
5.704039e-001 -1.222649e-001 -6.464021e+000 26 16 5
4.746671e-001 1.067325e+000 -6.058680e+000 194 173 144
5.664613e-001 1.128313e-001 -6.411500e+000 117 112 87
1.116737e-001 1.412838e+000 -5.963243e+000 184 152 101
2.218388e-001 1.478158e+000 -5.822745e+000 191 158 105
6.806854e-002 1.508300e+000 -5.856005e+000 163 157 135
6.824320e-002 1.508415e+000 -5.856198e+000 163 157 135
1.570086e-001 1.487532e+000 -5.764227e+000 158 143 119
3.058768e-001 2.337226e-001 -6.300036e+000 59 44 25
4.758875e-001 1.260343e+000 -5.975586e+000 214 182 141
2.581878e-001 1.480757e+000 -5.697915e+000 69 58 40
5.541717e-001 1.886904e-002 -6.440561e+000 122 111 86
-8.035560e+000 5.528006e+000 -2.745646e+001 10 25 31
4.235709e-001 3.921454e-001 -6.327099e+000 57 49 28
1.424905e+001 -3.946300e+000 -1.838731e+001 132 128 125
1.418053e+001 -3.106692e+000 -1.798308e+001 177 161 131
1.434844e+001 -2.902277e+000 -1.828247e+001 88 74 58
1.448384e+001 -2.085679e+000 -1.789138e+001 255 241 189
1.463120e+001 -4.070017e+000 -1.835198e+001 250 232 157
1.467328e+001 -3.723909e+000 -1.845692e+001 239 226 192
1.470995e+001 -3.417179e+000 -1.752228e+001 185 147 100
1.391848e+001 -3.869889e+000 -1.843254e+001 254 239 158
1.459872e+001 -1.731854e+000 -1.787110e+001 240 223 153
1.408649e+001 -3.844468e+000 -1.947290e+001 74 55 49
1.437466e+001 -2.210557e+000 -1.800158e+001 142 127 99
1.452308e+001 -2.381387e+000 -1.784385e+001 106 75 49
1.429333e+001 -1.722510e+000 -1.779269e+001 132 122 87
3.981451e-001 9.465272e-001 -6.252011e+000 25 24 21
1.471029e+001 -4.096449e+000 -1.787250e+001 62 45 29
1.470176e+001 -3.941428e+000 -1.834063e+001 92 61 40
1.466669e+001 -3.874375e+000 -1.820127e+001 240 204 150
1.464301e+001 -3.643527e+000 -1.708363e+001 66 47 43
1.454566e+001 -3.480257e+000 -1.700187e+001 110 66 53
1.417952e+001 -3.236054e+000 -1.823981e+001 244 232 206
1.482163e+001 -3.270825e+000 -1.808439e+001 67 45 36
1.472634e+001 -3.245734e+000 -1.800438e+001 67 45 36
1.401392e+001 -3.039752e+000 -1.811940e+001 255 246 213
1.488538e+001 -2.899921e+000 -1.816018e+001 202 172 119
1.466745e+001 -2.485363e+000 -1.749879e+001 66 38 17
4.044801e-001 9.302626e-001 -6.254935e+000 25 26 20
4.567114e-002 1.502124e+000 -5.894587e+000 189 173 147
1.400096e+001 -4.235954e+000 -1.942408e+001 87 76 72
1.474675e+001 -3.964685e+000 -1.752056e+001 117 107 87
1.469599e+001 -4.003855e+000 -1.829450e+001 251 232 167
1.479776e+001 -4.036482e+000 -1.838226e+001 251 232 167
1.449387e+001 -3.790555e+000 -1.710270e+001 105 89 72
1.469769e+001 -3.900711e+000 -1.781917e+001 64 50 32
1.467706e+001 -3.805433e+000 -1.707200e+001 82 54 32
1.463861e+001 -3.503130e+000 -1.820299e+001 91 62 35
1.471914e+001 -3.280947e+000 -1.698440e+001 80 53 28
1.462039e+001 -1.996924e+000 -1.681529e+001 67 51 35
1.453841e+001 -1.721734e+000 -1.662350e+001 253 238 212
1.492692e+001 -1.707025e+000 -1.782140e+001 63 45 38
1.493976e+001 -1.477713e+000 -1.789350e+001 223 213 198
3.617258e-001 1.097659e+000 -6.038820e+000 162 133 93
3.780484e-001 1.318666e+000 -5.994498e+000 43 14 1
1.704698e-001 1.480023e+000 -5.756076e+000 162 148 119
1.449545e+001 -4.438679e+000 -1.933606e+001 81 63 55
1.449931e+001 -4.157333e+000 -1.720993e+001 205 192 146
1.451181e+001 -4.079704e+000 -1.720101e+001 210 197 152
1.434644e+001 -3.816731e+000 -2.012141e+001 120 106 102
1.434644e+001 -3.816731e+000 -2.012141e+001 120 106 102
1.436929e+001 -3.686880e+000 -1.988725e+001 126 102 91
1.429813e+001 -3.198357e+000 -1.808402e+001 166 151 124
1.429813e+001 -3.198357e+000 -1.808402e+001 166 151 124
1.476010e+001 -2.390043e+000 -2.000817e+001 121 108 99
1.395526e+001 -2.008472e+000 -1.795785e+001 159 136 89
1.449447e+001 -1.806918e+000 -1.773377e+001 100 64 32
4.737845e-001 1.057381e+000 -6.051780e+000 40 24 7
3.742756e-001 1.458287e+000 -6.507215e+000 227 194 151
1.797135e-001 1.350219e+000 -5.886771e+000 253 231 184
1.495392e+001 -4.189703e+000 -1.846183e+001 180 133 89
1.484975e+001 -3.452766e+000 -1.812038e+001 43 23 7
1.491367e+001 -1.555570e+000 -1.779825e+001 103 77 44
2.531223e-001 1.230607e+000 -6.185716e+000 177 145 104
4.865836e-001 1.209897e+000 -5.792015e+000 223 193 157
-9.028724e-003 1.548435e+000 -6.006314e+000 92 78 51
1.452460e+001 -3.468531e+000 -1.990686e+001 66 50 37
1.489402e+001 -2.994572e+000 -1.804916e+001 50 18 1
1.449181e+001 -2.859847e+000 -1.796697e+001 65 32 2
1.456526e+001 -1.854677e+000 -1.972990e+001 127 109 87
3.872309e-001 9.599778e-001 -6.248327e+000 110 106 94
7.946639e-002 1.445567e+000 -6.025547e+000 198 166 115
5.006623e-002 1.543555e+000 -6.105585e+000 165 132 91
1.009471e-001 1.499966e+000 -5.817705e+000 189 177 151
4.952296e-001 1.045673e+000 -6.000577e+000 111 85 58
8.085671e-001 1.501909e+000 -6.258837e+000 247 215 162
4.167340e-001 -4.807256e-002 -6.422583e+000 80 73 55
-1.034804e+000 3.366404e-001 -1.011060e+001 189 197 219
6.932712e-001 1.462810e+000 -5.709871e+000 207 189 165
5.080737e-001 1.465369e+000 -5.652409e+000 169 161 142
4.379413e-001 9.570697e-002 -6.408001e+000 123 115 95
4.444931e-001 4.950110e-001 -6.322193e+000 66 58 38
7.907453e-001 1.248299e+000 -6.317158e+000 163 147 131
6.293488e-001 1.259966e+000 -6.037640e+000 201 163 120
7.705384e-001 1.480775e+000 -5.759522e+000 103 88 70
5.829700e-001 1.460886e+000 -5.667970e+000 111 98 82
4.834960e-001 8.272714e-001 -6.284382e+000 159 148 120
5.223195e-001 1.088531e+000 -6.004684e+000 165 130 95
7.141854e-001 1.374855e+000 -5.832720e+000 195 162 121
4.311845e-001 6.994885e-002 -6.406652e+000 75 59 43
4.762186e-001 1.230927e-001 -6.434830e+000 80 68 44
5.238990e-001 6.430017e-001 -6.310200e+000 153 141 117
7.287346e-001 1.407282e+000 -5.834938e+000 252 223 183
7.287346e-001 1.407282e+000 -5.834938e+000 252 223 183
4.859733e-001 5.338278e-001 -6.347560e+000 175 160 131
3.321908e-001 7.848571e-001 -6.167652e+000 76 61 42
3.321908e-001 7.848571e-001 -6.167652e+000 76 61 42
4.734485e-001 9.283107e-001 -6.257434e+000 46 43 24
3.445675e-001 1.383280e+000 -9.898240e+000 193 168 104
5.519726e-001 9.933323e-001 -6.017927e+000 195 179 155
7.934565e-001 1.486026e+000 -6.263036e+000 254 222 175
6.382139e-001 1.463370e+000 -5.683516e+000 197 182 162
6.415026e-001 1.467397e+000 -5.684637e+000 111 100 79
5.651600e-001 1.474670e+000 -5.656414e+000 115 101 75
4.808045e-001 5.459664e-001 -6.343103e+000 98 82 56
4.528657e-001 6.922709e-001 -6.288393e+000 76 67 43
3.398070e-001 7.762567e-001 -6.173660e+000 130 115 96
6.805620e-001 1.212147e+000 -6.104068e+000 100 75 55
7.108117e-001 1.454951e+000 -5.811328e+000 254 226 188
5.957050e-001 1.460457e+000 -5.667359e+000 105 93 79
1.070105e+000 1.431107e+000 -5.579756e+000 109 94 71
1.391200e+001 -2.797927e+000 -1.819203e+001 251 239 160
1.410170e+001 -3.608452e+000 -1.826204e+001 246 231 199
3.031761e+000 1.557125e+000 -8.708063e+000 132 102 41
1.431930e+001 -3.752008e+000 -1.823161e+001 134 118 102
1.457066e+001 -3.817046e+000 -2.037809e+001 130 114 92
1.445433e+001 -2.837539e+000 -1.991950e+001 237 216 195
1.431807e+001 -5.569193e-001 -1.923327e+001 59 44 29
1.435966e+001 -5.611655e-001 -1.927454e+001 59 44 29
1.441549e+001 -3.273247e+000 -1.991984e+001 60 43 35
1.439694e+001 -1.232985e+000 -1.946460e+001 74 62 47
3.068622e+000 1.495429e+000 -8.716576e+000 130 108 60
1.427905e+001 -3.236531e+000 -1.980579e+001 69 55 45
6.601399e-001 5.050042e-001 -6.314224e+000 116 110 90
1.436479e+001 -3.585908e+000 -1.823982e+001 247 236 204
1.439320e+001 -3.356968e+000 -1.985148e+001 158 147 141
1.590244e-001 1.491801e+000 -5.874826e+000 241 210 164
1.023449e-001 1.495143e+000 -6.033721e+000 226 198 150
3.178145e-001 1.290243e+000 -5.805910e+000 255 251 208
3.713452e-001 1.347228e+000 -6.003513e+000 251 221 161
4.317753e-001 -1.961115e-002 -6.627773e+000 74 69 47
3.828724e-001 1.355062e+000 -5.979416e+000 127 97 59
4.220950e-001 5.394141e-001 -6.464792e+000 71 58 41
4.487218e-001 1.989441e-001 -6.639318e+000 13 9 5
4.844118e-001 1.066956e+000 -6.046789e+000 90 67 49
4.592068e+000 2.349276e+000 -1.200962e+001 22 16 10
4.592068e+000 2.349276e+000 -1.200962e+001 22 16 10
4.430058e-001 -9.570119e-002 -6.619676e+000 8 5 0
4.355697e-001 4.476831e-001 -6.486682e+000 86 68 54
4.341664e-001 4.805162e-001 -6.502590e+000 68 62 50
2.792901e-001 1.119582e+000 -6.284181e+000 68 51 32
2.556347e-001 1.191484e+000 -6.274690e+000 168 146 115
9.659581e-002 1.424519e+000 -5.985789e+000 247 219 170
2.712189e-001 1.117673e+000 -6.292581e+000 237 217 164
1.273132e+000 1.088292e+000 -6.079891e+000 243 233 199
2.352711e-001 1.152018e+000 -6.291209e+000 101 76 47
4.721110e+000 2.328064e+000 -1.203454e+001 27 12 1
4.442501e+000 2.401600e+000 -1.187854e+001 37 22 1
3.382325e+000 2.485618e+000 -1.026054e+001 55 34 13
4.716022e-001 1.297216e+000 -5.978593e+000 255 232 176
5.817601e-001 9.716095e-003 -6.440986e+000 137 128 98
4.577953e+000 2.294332e+000 -1.206797e+001 139 108 71
3.396502e+000 2.460719e+000 -1.049181e+001 63 43 18
3.942095e-002 1.508674e+000 -5.896829e+000 102 87 61
4.881906e-001 5.772385e-002 -6.621287e+000 155 165 185
4.881906e-001 5.772385e-002 -6.621287e+000 155 165 185
4.213772e-001 2.658850e-001 -6.664450e+000 156 173 194
4.722514e-001 1.041368e+000 -6.058627e+000 168 151 125
2.392540e-001 1.143287e+000 -6.323057e+000 22 4 0
3.934160e-001 1.092961e+000 -6.017827e+000 149 112 67
4.906543e-001 1.226214e+000 -5.825010e+000 215 186 146
3.368277e+000 2.467651e+000 -1.053263e+001 69 43 8
3.486296e+000 2.493313e+000 -1.034947e+001 135 119 84
3.553309e+000 2.496961e+000 -1.033421e+001 64 43 12
2.487241e-002 1.508028e+000 -5.924181e+000 204 187 160
4.329240e-001 2.909396e-001 -6.605589e+000 23 15 5
4.776627e-001 1.014048e+000 -6.011474e+000 72 61 41
3.700716e-001 1.479887e+000 -6.498284e+000 226 201 158
-2.167022e-001 1.446645e+000 -5.677661e+000 204 188 154
3.119374e-001 1.201524e-001 -6.360662e+000 94 79 56
4.408805e-001 1.639600e-001 -6.550578e+000 123 115 108
4.310150e-001 5.592954e-001 -6.329993e+000 123 116 83
3.948305e-001 9.557041e-001 -6.245513e+000 126 115 98
2.492602e-001 1.135711e+000 -6.291567e+000 62 37 4
2.773762e-001 1.441221e+000 -6.302441e+000 223 198 168
1.911143e-001 1.341657e+000 -5.875645e+000 247 216 172
1.161777e-001 1.505046e+000 -5.932821e+000 197 170 121
1.748522e-001 1.472330e+000 -5.752267e+000 210 193 163
8.518987e-001 1.289057e+000 -6.324072e+000 245 237 197
9.286628e-001 1.345880e+000 -6.329033e+000 21 15 16
3.740747e-001 4.153160e-001 -6.311432e+000 182 205 236
3.802146e-001 5.457033e-001 -6.359048e+000 191 211 236
3.850450e-001 -1.585001e-001 -6.422274e+000 88 72 58
7.931925e-001 1.304456e+000 -6.297683e+000 153 137 117
6.466165e-001 1.461440e+000 -5.704406e+000 215 196 165
6.392605e-001 1.298807e-001 -6.387515e+000 129 118 98
4.379287e-001 1.684644e-001 -6.406011e+000 120 110 90
3.239240e-001 4.983810e-001 -6.270270e+000 44 34 25
4.701390e-001 6.072886e-001 -6.324310e+000 97 84 62
7.709262e-001 1.401759e+000 -6.270686e+000 113 100 84
7.119007e-001 1.388867e+000 -5.828070e+000 169 136 95
6.389636e-002 6.923354e-001 -1.006025e+001 220 226 231
6.389636e-002 6.923354e-001 -1.006025e+001 220 226 231
5.378515e-001 1.049656e+000 -6.008392e+000 90 72 48
6.666396e-001 1.166975e+000 -6.112287e+000 211 188 157
6.312305e-001 1.350509e-001 -6.400190e+000 137 129 113
