ply
format ascii 1.0
element face 0
property list uchar int vertex_indices
element vertex 852
property float x
property float y
property float z
property uchar diffuse_red
property uchar diffuse_green
property uchar diffuse_blue
end_header
3.032575e-001 -3.306454e-001 -6.450124e+000 120 106 79
1.191999e+001 9.201421e-001 -3.671413e+001 235 129 126
1.298824e+001 8.389753e-001 -3.691818e+001 254 254 225
1.347920e+001 7.803505e-001 -3.651850e+001 252 249 216
1.342759e+001 1.268281e+000 -3.614778e+001 254 255 248
3.602540e-001 -9.907335e-002 -6.387535e+000 8 8 8
1.300863e+001 4.493542e-001 -3.623419e+001 253 251 221
1.037071e+001 3.688311e+000 -3.750380e+001 252 254 253
1.057609e+001 3.581376e+000 -3.647742e+001 241 242 244
-3.510159e-002 1.320710e+000 -5.741859e+000 250 222 174
4.698312e-003 1.363295e+000 -5.700706e+000 182 154 109
1.699442e-001 1.460319e+000 -5.507846e+000 106 94 75
1.275804e+001 5.931653e-001 -3.606209e+001 249 117 119
1.275804e+001 5.931653e-001 -3.606209e+001 249 117 119
2.258164e+000 8.649320e-001 -1.033356e+001 159 154 134
2.258164e+000 8.649320e-001 -1.033356e+001 159 154 134
1.106641e+001 2.072848e+000 -3.760697e+001 255 252 237
1.106641e+001 2.072848e+000 -3.760697e+001 255 252 237
1.282264e+001 4.453223e+000 -3.635990e+001 250 248 224
1.214473e+001 4.635185e+000 -3.641346e+001 190 185 163
3.311332e+000 2.522489e+000 -1.254039e+001 33 9 6
1.074031e-001 1.349887e+000 -5.648158e+000 219 180 128
1.074096e-001 1.350021e+000 -5.648124e+000 219 180 128
-3.209619e-002 1.368489e+000 -5.726527e+000 206 174 123
-3.209619e-002 1.368489e+000 -5.726527e+000 206 174 123
2.041418e-001 1.452144e+000 -5.505233e+000 160 148 122
2.119911e-001 1.460318e+000 -5.500699e+000 109 98 72
6.300024e-002 1.466338e+000 -5.535681e+000 110 100 75
-1.992879e-001 1.513492e+000 -5.744789e+000 112 102 77
1.309861e+001 5.464842e-001 -3.593291e+001 238 118 112
1.314851e+001 8.628184e-001 -3.611989e+001 248 243 214
1.300091e+001 8.740708e-001 -3.609652e+001 230 103 90
1.300091e+001 8.740708e-001 -3.609652e+001 230 103 90
1.297792e+001 1.078256e+000 -3.687910e+001 247 240 213
1.339262e+001 1.075568e+000 -3.644649e+001 145 125 109
2.458869e+000 1.244315e+000 -1.024829e+001 193 188 169
1.161379e+001 4.344098e+000 -3.673115e+001 249 234 211
1.119158e+001 4.369753e+000 -3.686386e+001 254 234 210
1.031629e+001 4.452094e+000 -3.719642e+001 247 234 206
1.181947e+001 4.316398e+000 -3.657837e+001 243 240 212
1.183262e+001 4.486987e+000 -3.669709e+001 192 174 150
1.183262e+001 4.486987e+000 -3.669709e+001 192 174 150
1.025477e+001 4.798584e+000 -3.724663e+001 193 183 162
1.280119e+001 4.525165e+000 -3.575349e+001 191 182 161
9.911632e+000 4.707315e+000 -3.136892e+001 197 180 153
2.955214e+000 2.386517e+000 -1.260809e+001 201 152 93
6.612792e-002 1.457922e+000 -5.537075e+000 174 162 140
1.228523e+001 3.776740e+000 -3.639879e+001 184 182 159
1.004826e+001 4.814466e+000 -3.740049e+001 187 177 152
2.808380e+000 2.177755e+000 -1.300311e+001 204 148 96
2.944108e+000 2.514474e+000 -1.263507e+001 223 172 107
3.102007e-001 1.456382e+000 -5.495450e+000 103 96 77
4.362395e-001 5.274488e-001 -6.211410e+000 83 69 43
-2.020149e-002 1.036943e+000 -6.265910e+000 249 227 180
3.214275e+000 2.484027e+000 -1.259296e+001 249 199 138
3.275487e+000 2.712568e+000 -1.239812e+001 95 50 11
1.634613e-002 1.450546e+000 -5.560869e+000 198 184 153
-3.248161e-003 1.459019e+000 -5.568567e+000 102 90 64
-8.260526e-002 1.472396e+000 -5.621971e+000 111 97 68
1.286952e+001 3.433416e+000 -3.592821e+001 245 252 253
1.006428e+001 3.843197e+000 -3.726058e+001 237 241 242
1.259370e+001 3.572097e+000 -3.611127e+001 196 205 207
3.221439e+000 2.515375e+000 -1.260709e+001 66 25 0
3.270092e+000 2.741193e+000 -1.240114e+001 251 229 177
3.270092e+000 2.741193e+000 -1.240114e+001 251 229 177
8.096098e-002 2.961542e-002 -6.246778e+000 124 106 81
1.283150e+001 7.191290e-001 -3.625408e+001 255 238 215
3.302230e+000 2.368760e+000 -1.256299e+001 253 206 148
2.883049e+000 2.412836e+000 -1.259543e+001 198 154 90
3.405714e+000 2.385366e+000 -1.267897e+001 205 133 69
2.929612e+000 2.421347e+000 -1.259345e+001 243 193 137
4.800722e-002 1.358719e+000 -5.678535e+000 210 176 128
4.133751e-001 1.057480e+000 -5.945199e+000 238 204 159
2.631944e-001 -2.912536e-002 -6.374804e+000 99 85 67
2.792382e-001 3.710094e-001 -6.293230e+000 76 60 37
2.739808e-001 7.030171e-001 -6.216901e+000 60 53 25
2.459096e-001 4.921377e-001 -6.239506e+000 116 107 82
2.987087e-001 -4.842928e-001 -6.447097e+000 121 148 190
2.438999e-001 -2.399539e-001 -6.409158e+000 87 81 55
4.113011e-001 1.059957e+000 -5.941652e+000 236 200 150
2.905382e-001 -3.566133e-001 -6.465172e+000 133 121 89
3.716599e-001 1.437252e+000 -5.503816e+000 188 171 143
2.928306e-001 1.442926e+000 -5.497640e+000 109 102 82
2.854204e-001 6.989357e-001 -6.225055e+000 153 144 115
2.586192e-001 6.680617e-001 -6.209564e+000 40 30 18
2.934696e-001 1.459970e+000 -5.492814e+000 103 93 68
2.792601e-001 -1.378212e-001 -6.409118e+000 62 54 31
2.899379e-001 5.616956e-001 -6.252448e+000 150 136 107
2.880754e-001 4.248524e-001 -6.285553e+000 170 155 124
3.033541e-001 -3.312849e-001 -6.452246e+000 120 106 79
3.756973e-001 -1.443408e-001 -6.402389e+000 129 115 89
8.511050e-002 1.459758e+000 -5.530378e+000 125 117 98
2.763841e-001 3.465788e-001 -6.295732e+000 72 55 35
2.704558e-001 7.880270e-001 -6.195396e+000 45 36 27
3.760255e-001 -2.931417e-001 -6.406414e+000 9 8 5
2.763831e-001 5.798906e-001 -6.248078e+000 70 55 34
2.898570e-001 8.327895e-001 -6.196927e+000 148 138 111
3.102249e-001 1.455553e+000 -5.493782e+000 103 96 77
2.889476e-001 3.230992e-001 -6.309597e+000 145 132 101
2.879289e-001 4.818930e-001 -6.275232e+000 160 147 114
2.904639e-001 4.950282e-001 -6.269943e+000 159 148 116
3.121699e-002 1.155997e+000 -1.037842e+001 72 57 24
4.896972e-001 1.458923e+000 -5.630440e+000 247 216 178
3.126738e-001 1.443993e+000 -5.499248e+000 109 94 75
2.411997e-001 5.208847e-001 -6.237397e+000 126 115 90
8.744196e-002 4.180527e-002 -6.279735e+000 19 22 15
2.372909e-001 -3.672919e-002 -6.352461e+000 102 91 69
2.691692e-001 5.070069e-001 -6.258232e+000 75 62 45
2.727852e-001 4.643137e-001 -6.267782e+000 82 69 50
1.011104e-001 1.443477e+000 -5.529671e+000 201 187 158
2.479997e-001 3.477086e-001 -6.273465e+000 102 90 68
2.591341e-001 7.171798e-001 -6.207325e+000 116 109 83
3.899841e-001 1.458877e+000 -5.500085e+000 73 60 41
3.125587e-001 6.458762e-001 -6.233164e+000 119 105 78
2.675095e-001 7.277234e-001 -6.211416e+000 65 57 34
2.192833e-001 -4.824829e-003 -6.334308e+000 95 82 63
-1.228986e+000 -1.290288e-002 -1.071916e+001 159 179 168
2.347329e-001 4.915311e-001 -6.229523e+000 108 100 79
1.879183e+000 1.858423e+000 -1.701090e+001 198 193 187
-1.017210e+000 1.421078e+000 -9.431849e+000 57 26 6
1.974585e-001 -3.087469e-001 -6.379127e+000 99 92 73
-1.187063e+000 4.779876e-002 -1.070703e+001 175 191 199
-1.375395e+000 1.863259e-001 -1.058786e+001 42 43 44
-1.375395e+000 1.863259e-001 -1.058786e+001 42 43 44
2.381380e-001 -1.038515e-001 -6.371962e+000 143 133 117
1.952150e-001 1.850472e-003 -6.310580e+000 21 11 0
-1.060382e+000 -8.517535e-002 -1.065793e+001 64 49 8
-6.848943e-001 1.316359e-001 -1.072150e+001 165 186 208
3.158195e-001 -2.240319e-001 -6.428772e+000 115 102 79
2.432733e-001 -2.389045e-001 -6.404087e+000 87 81 55
1.082108e-001 -8.682105e-002 -6.313993e+000 17 17 19
1.127074e-001 1.458453e+000 -5.522079e+000 109 101 80
2.935786e-001 -4.169129e-001 -6.481841e+000 111 99 73
2.087330e-001 -1.084392e-001 -6.392071e+000 6 8 8
2.087330e-001 -1.084392e-001 -6.392071e+000 6 8 8
2.940129e-001 -3.112419e-002 -6.381155e+000 139 123 98
-1.979511e-002 1.468182e+000 -5.580425e+000 85 72 55
2.194879e-001 -1.995594e-001 -6.380993e+000 15 14 12
2.194879e-001 -1.995594e-001 -6.380993e+000 15 14 12
-1.213443e+000 7.345975e-002 -1.070767e+001 158 179 209
3.021942e+000 2.368920e+000 -1.265741e+001 220 184 130
3.477846e-001 -2.527805e-001 -6.407009e+000 130 119 89
-1.091403e-001 1.391970e+000 -5.820701e+000 197 168 124
-9.227847e-002 1.468414e+000 -5.632976e+000 202 186 153
2.106717e-001 -3.051671e-001 -6.386020e+000 9 5 3
3.858349e-001 -2.822595e-001 -6.411994e+000 131 121 95
2.014992e-001 1.815980e-002 -6.305151e+000 91 78 59
-1.196001e+000 -6.419907e-002 -1.067709e+001 171 189 205
-1.202743e+000 2.118964e-002 -1.071362e+001 49 40 21
-1.304680e+000 1.820601e-001 -1.064811e+001 102 84 21
-1.386744e+000 2.199600e-001 -1.058324e+001 171 185 196
1.327897e-001 5.406998e-001 -6.131882e+000 62 49 32
2.877106e-001 6.189038e-001 -6.237444e+000 150 136 109
3.218562e+000 2.361243e+000 -1.292781e+001 245 200 139
3.340564e+000 2.761969e+000 -1.250106e+001 243 222 154
3.388953e+000 2.803772e+000 -1.243382e+001 12 0 0
3.388953e+000 2.803772e+000 -1.243382e+001 12 0 0
3.388953e+000 2.803772e+000 -1.243382e+001 12 0 0
3.097524e-001 -4.063471e-001 -6.462487e+000 115 103 76
1.952392e-001 6.495916e-002 -6.309768e+000 105 95 69
3.333298e+000 1.035616e+000 -1.092183e+001 106 88 49
2.258960e-002 1.044335e+000 -6.254334e+000 227 200 147
4.709290e-002 1.054846e+000 -6.240006e+000 233 206 160
3.364949e+000 2.469629e+000 -1.254726e+001 173 117 54
3.027640e+000 2.515992e+000 -1.260163e+001 226 177 108
3.291746e+000 2.841638e+000 -1.235667e+001 255 235 179
3.233911e-001 1.444000e+000 -5.496384e+000 116 106 85
2.821762e-001 -4.691273e-001 -6.480089e+000 124 150 179
1.929657e-001 -3.843096e-001 -6.395265e+000 102 95 76
2.280649e-001 -1.197574e-001 -6.354594e+000 109 93 77
1.176738e-001 2.861141e-001 -6.171398e+000 86 86 76
1.099961e-001 2.964852e-001 -6.170128e+000 132 123 98
2.883065e-001 3.422213e-001 -6.300043e+000 148 133 102
-1.294949e+000 3.782926e-002 -1.063715e+001 161 174 197
-1.383746e+000 2.552738e-001 -1.057839e+001 65 42 16
5.036794e-002 1.144943e+000 -1.044766e+001 213 211 194
3.227236e+000 2.333411e+000 -1.299952e+001 57 18 3
4.823668e-001 1.080482e+000 -5.990746e+000 200 175 139
2.976695e+000 2.433943e+000 -1.254233e+001 106 61 28
3.411430e+000 2.515130e+000 -1.255726e+001 97 50 21
2.902505e+000 2.551318e+000 -1.272218e+001 216 167 108
3.376724e+000 2.541520e+000 -1.258636e+001 230 179 122
4.820816e-001 1.112696e+000 -5.984831e+000 206 177 143
3.345986e+000 2.892451e+000 -1.243498e+001 39 15 0
3.345986e+000 2.892451e+000 -1.243498e+001 39 15 0
2.253001e-001 -4.069592e-001 -6.414887e+000 80 77 59
9.212367e-002 1.002006e-002 -6.226350e+000 145 131 105
1.991198e-001 1.678572e-001 -6.278030e+000 154 143 113
1.986334e-001 1.832049e-001 -6.270685e+000 163 149 120
-1.007148e+000 -2.270769e-001 -1.073130e+001 69 61 41
2.342882e-001 3.048553e-001 -6.266452e+000 60 49 27
-1.228962e+000 -3.660132e-002 -1.071988e+001 49 61 55
-1.228962e+000 -3.660132e-002 -1.071988e+001 49 61 55
2.793024e-001 3.575220e-001 -6.298110e+000 84 68 45
-1.196443e+000 -8.465112e-003 -1.070663e+001 178 178 180
-1.196182e+000 2.896275e-001 -1.043689e+001 71 65 32
2.860561e-001 5.092761e-001 -6.264164e+000 143 131 104
3.200272e-001 7.015427e-001 -6.210009e+000 88 74 47
-9.910551e-001 8.700221e-001 -1.052162e+001 72 59 55
1.152687e+001 3.010188e+000 -3.663248e+001 253 251 216
-3.887092e-002 1.133089e+000 -1.049581e+001 180 158 89
1.919022e+000 1.789369e+000 -1.708445e+001 66 56 44
3.729357e-002 1.196367e+000 -1.044599e+001 57 48 32
1.135004e+001 4.194270e+000 -3.653736e+001 210 199 178
1.012618e+001 4.768348e+000 -3.727412e+001 250 245 220
3.729663e-001 1.018794e+000 -5.951703e+000 235 211 171
3.250044e+000 2.316698e+000 -1.294098e+001 73 31 5
3.250044e+000 2.316698e+000 -1.294098e+001 73 31 5
3.298252e+000 2.324407e+000 -1.280332e+001 250 202 153
-1.276460e+000 3.108620e+000 -1.499619e+001 40 21 1
3.274853e+000 2.637129e+000 -1.239534e+001 74 29 2
3.475083e+000 2.647329e+000 -1.208124e+001 36 43 46
3.475083e+000 2.647329e+000 -1.208124e+001 36 43 46
3.417977e+000 2.737400e+000 -1.230819e+001 245 205 149
3.363594e+000 2.785070e+000 -1.241588e+001 33 9 1
3.432101e+000 2.837185e+000 -1.231480e+001 247 203 139
3.012562e+000 2.680888e+000 -1.095999e+001 156 142 115
-2.060298e-001 1.498164e+000 -5.765649e+000 210 196 161
3.322623e-001 1.451288e+000 -5.583735e+000 152 121 75
2.986206e-001 1.437989e+000 -5.505341e+000 205 187 156
1.486062e-001 1.447285e+000 -5.516982e+000 98 86 63
2.846403e-001 -4.529269e-001 -6.480917e+000 120 113 89
2.020435e-001 -3.086594e-001 -6.371342e+000 12 5 1
2.149923e-001 1.336135e-001 -6.291144e+000 120 107 88
2.479518e-001 1.635217e-001 -6.313655e+000 112 100 76
-1.040301e+000 -1.395659e-001 -1.068022e+001 171 181 171
2.882791e-001 3.803422e-001 -6.288240e+000 157 141 114
-1.180840e+000 2.088179e-001 -1.052129e+001 179 178 171
2.823595e-001 4.618687e-001 -6.274342e+000 75 60 37
-9.933507e-001 8.920551e-001 -1.052644e+001 62 51 45
1.927352e+000 1.838113e+000 -1.708924e+001 54 47 41
8.664132e+000 4.306285e+000 -3.151004e+001 252 246 207
4.239089e-002 1.019263e+000 -6.247775e+000 59 39 6
3.350073e-002 1.028352e+000 -6.244608e+000 254 233 181
3.237000e+000 2.231226e+000 -1.288200e+001 245 180 123
2.051989e-001 1.025344e+000 -5.919824e+000 138 106 67
3.250252e+000 2.398489e+000 -1.299410e+001 252 225 177
3.285230e+000 2.455944e+000 -1.271916e+001 94 55 18
3.284053e+000 2.617024e+000 -1.239409e+001 218 170 124
3.326140e+000 2.797665e+000 -1.255140e+001 45 9 0
3.400276e+000 2.772996e+000 -1.237499e+001 53 20 0
3.460887e+000 2.753064e+000 -1.227111e+001 59 24 2
-3.873723e-001 2.546879e+000 -1.062115e+001 145 112 86
-1.589483e-001 1.397574e+000 -5.884945e+000 242 218 181
-1.048937e-001 1.381114e+000 -5.806035e+000 238 209 165
3.319473e-001 1.454630e+000 -5.581426e+000 213 188 147
5.112966e-003 1.461240e+000 -5.567572e+000 105 93 71
2.863142e-001 1.446030e+000 -5.497817e+000 107 102 84
8.485732e-002 1.459986e+000 -5.531415e+000 127 119 100
4.561377e-001 3.765365e-001 -6.188725e+000 21 20 24
-1.272984e+000 3.160711e-002 -1.064048e+001 79 68 28
2.435273e-001 5.045226e-001 -6.232929e+000 106 101 85
-5.017501e-001 4.047881e-001 -1.099554e+001 76 73 66
2.851064e-001 5.903733e-001 -6.246301e+000 154 140 114
2.343742e-001 5.993655e-001 -6.221651e+000 87 76 46
2.256062e-001 6.164388e-001 -6.232277e+000 113 105 86
1.971802e-001 9.192865e-001 -6.102974e+000 71 64 54
-1.078290e+000 1.465213e+000 -9.238666e+000 36 21 0
3.526045e-002 1.050244e+000 -6.037895e+000 120 95 58
2.893593e+000 2.418799e+000 -1.262860e+001 198 154 90
-1.509569e+000 3.127479e+000 -1.499072e+001 116 94 70
3.277541e+000 2.769606e+000 -1.249954e+001 235 195 149
4.834285e-001 1.781260e-001 -6.364473e+000 154 178 206
1.713864e-001 -2.284817e-001 -6.382277e+000 16 15 13
1.071515e+001 1.025755e+000 -3.720178e+001 218 139 135
8.153043e+000 1.241282e+000 -3.785979e+001 202 145 147
8.354919e+000 3.441404e+000 -3.868913e+001 252 252 251
2.639032e-001 -1.600930e-001 -6.418370e+000 67 59 41
4.867887e-001 -7.353216e-002 -6.382150e+000 15 15 17
1.209731e+001 1.839815e+000 -3.627135e+001 156 149 134
9.505879e+000 2.048949e+000 -3.743759e+001 160 157 138
7.531874e+000 2.421071e+000 -3.758826e+001 172 174 171
1.029995e+001 2.932905e+000 -3.738080e+001 195 187 166
1.029644e+001 2.931088e+000 -3.736451e+001 195 187 166
9.714799e+000 4.506261e+000 -3.666587e+001 187 179 158
9.701407e+000 4.675028e+000 -3.797525e+001 171 163 142
9.701407e+000 4.675028e+000 -3.797525e+001 171 163 142
3.507361e-001 1.065447e+000 -5.926473e+000 245 218 164
3.614885e-001 -3.872123e-001 -6.453599e+000 13 9 10
3.620741e-001 -3.857613e-001 -6.451447e+000 13 9 10
4.215670e-001 -1.990159e-001 -6.478626e+000 129 159 196
2.684510e-001 5.521146e-001 -6.249413e+000 67 58 41
2.639218e-001 6.270435e-001 -6.238729e+000 75 67 46
1.278546e+001 1.316123e+000 -3.631203e+001 254 255 253
8.214959e+000 2.654095e+000 -3.871876e+001 251 255 253
9.452394e+000 4.129165e+000 -3.671738e+001 255 253 254
2.827124e+000 2.422219e+000 -1.269392e+001 240 191 128
2.173490e-001 -3.910283e-001 -6.412400e+000 7 7 10
2.676984e-001 -6.416627e-002 -6.390187e+000 46 37 18
8.068695e+000 1.717748e+000 -3.837172e+001 254 255 250
9.124609e+000 1.894961e+000 -3.726070e+001 223 211 188
1.085889e+001 3.794618e+000 -3.654976e+001 193 207 211
1.761034e-001 1.015998e+000 -6.067421e+000 32 25 17
2.400151e+000 2.533148e+000 -1.290255e+001 215 177 126
4.610746e-001 1.110593e+000 -5.966184e+000 172 140 99
5.559444e-001 1.361087e+000 -5.690222e+000 156 124 85
2.716614e-001 -4.621234e-001 -6.491229e+000 57 50 43
2.898836e-001 -4.147755e-001 -6.486161e+000 114 102 75
3.756534e-001 -2.944104e-001 -6.412120e+000 9 8 5
3.681190e-001 -1.749235e-001 -6.421724e+000 126 114 90
1.104333e-001 -1.058103e-001 -6.289580e+000 114 99 73
2.205063e-001 3.400649e-001 -6.266319e+000 77 67 48
-1.484985e+000 1.888736e-001 -1.053167e+001 123 109 43
1.089133e+001 7.764452e-001 -3.714516e+001 248 139 127
1.089133e+001 7.764452e-001 -3.714516e+001 248 139 127
1.131141e+001 3.515741e+000 -3.655805e+001 181 168 145
6.299062e+000 2.196782e+000 -2.167137e+001 181 168 145
9.771203e+000 3.837438e+000 -3.628102e+001 208 219 224
8.084717e+000 4.318190e+000 -3.799020e+001 254 255 250
3.267979e-001 9.400250e-001 -5.899699e+000 217 200 149
2.848462e+000 2.592500e+000 -1.272408e+001 34 16 13
2.877817e-001 -4.118030e-001 -6.485559e+000 119 109 82
3.489451e-001 -2.604516e-001 -6.428996e+000 128 117 89
3.688058e-001 3.810030e-001 -6.347250e+000 170 185 197
2.426470e-001 5.285755e-001 -6.238445e+000 117 104 70
1.318163e+001 1.104592e+000 -3.690344e+001 170 144 130
1.128691e+001 1.891617e+000 -3.685717e+001 157 151 136
1.262518e+001 2.061083e+000 -3.690830e+001 217 213 188
1.119609e+001 2.174062e+000 -3.749269e+001 210 204 179
1.085514e+001 2.193242e+000 -3.750951e+001 213 212 182
8.409608e+000 2.936379e+000 -3.740142e+001 252 255 234
8.642939e+000 2.962134e+000 -3.758599e+001 206 197 175
8.642939e+000 2.962134e+000 -3.758599e+001 206 197 175
8.367547e+000 4.191574e+000 -3.889082e+001 198 192 165
1.218347e+001 4.629702e+000 -3.783734e+001 192 175 151
3.272170e-001 9.549620e-001 -5.908346e+000 152 133 90
3.463507e-001 9.797477e-001 -5.911150e+000 68 55 38
3.236048e-001 1.001231e+000 -5.909589e+000 54 38 23
2.276576e+000 2.453826e+000 -1.300857e+001 53 27 14
2.276576e+000 2.453826e+000 -1.300857e+001 53 27 14
2.275246e+000 2.453352e+000 -1.300493e+001 53 27 14
2.614783e+000 2.440277e+000 -1.277751e+001 246 203 134
2.421287e+000 2.522698e+000 -1.287752e+001 215 165 106
2.427992e+000 2.575183e+000 -1.283486e+001 82 47 32
2.437969e+000 2.584806e+000 -1.288460e+001 82 47 32
2.330682e+000 2.646976e+000 -1.285007e+001 95 47 16
2.330682e+000 2.646976e+000 -1.285007e+001 95 47 16
2.268234e+000 2.724928e+000 -1.287043e+001 46 27 33
2.268234e+000 2.724928e+000 -1.287043e+001 46 27 33
-2.791356e+000 2.874934e+000 -1.329067e+001 62 52 27
6.267340e-002 1.355034e+000 -5.668607e+000 218 186 139
7.218280e-001 1.491243e+000 -5.689054e+000 141 133 110
2.886473e-001 -2.519286e-001 -6.443466e+000 133 122 94
3.709247e-001 -1.758769e-001 -6.417874e+000 117 105 86
-1.172907e+000 -2.879441e-002 -1.068557e+001 64 51 26
-1.258444e+000 3.410541e-002 -1.063382e+001 66 47 4
-1.750617e+000 3.361194e-001 -9.902808e+000 83 65 30
2.751036e-001 6.335662e-001 -6.235014e+000 92 80 56
1.029745e+001 1.285526e+000 -3.667432e+001 179 100 92
9.733583e+000 1.376531e+000 -3.838883e+001 242 117 116
9.137224e+000 1.378750e+000 -3.716670e+001 192 104 98
9.342684e+000 2.279653e+000 -3.757240e+001 221 214 195
1.046660e+001 2.801038e+000 -3.713580e+001 168 158 136
1.046840e+001 2.806427e+000 -3.714633e+001 168 158 136
7.909403e+000 2.986173e+000 -3.837803e+001 210 191 166
1.047380e+001 3.121559e+000 -3.709883e+001 205 194 176
1.022854e+001 3.127808e+000 -3.699575e+001 200 189 171
8.405598e+000 3.803130e+000 -3.797027e+001 205 194 167
8.203333e+000 4.384849e+000 -3.696760e+001 225 223 196
8.679491e+000 4.516930e+000 -3.742227e+001 215 195 169
1.233075e+001 4.441496e+000 -3.634362e+001 155 147 135
8.794896e+000 5.379559e+000 -3.765970e+001 200 181 150
4.111191e-001 1.025827e+000 -5.928894e+000 121 94 55
2.349488e+000 2.494218e+000 -1.294516e+001 164 102 41
3.273358e+000 2.426513e+000 -1.257666e+001 235 187 125
2.210656e+000 2.525032e+000 -1.291802e+001 97 52 11
2.241924e+000 2.596690e+000 -1.297057e+001 246 196 137
3.276691e+000 2.527789e+000 -1.259590e+001 36 6 0
2.579862e+000 2.588259e+000 -1.278649e+001 228 180 105
2.210484e+000 2.666265e+000 -1.287082e+001 22 9 4
2.206907e+000 2.661519e+000 -1.285077e+001 22 9 4
-1.714016e+000 2.320570e+000 -9.783964e+000 66 54 32
-1.344983e+000 2.488015e+000 -1.006446e+001 13 11 22
5.771899e-001 1.472994e+000 -5.575105e+000 72 64 43
2.714848e-001 1.458201e+000 -5.496965e+000 101 90 68
2.638027e-001 -4.178642e-001 -6.475727e+000 55 51 39
2.774996e-001 -3.588849e-002 -6.392870e+000 66 51 30
2.181902e-001 2.167166e-001 -6.284836e+000 67 60 41
1.630612e-001 2.991525e-001 -6.209706e+000 104 93 72
1.630612e-001 2.991525e-001 -6.209706e+000 104 93 72
4.364264e-001 3.486544e-001 -6.258325e+000 115 106 78
2.908372e-001 4.065936e-001 -6.292193e+000 153 138 107
2.309418e-001 4.767809e-001 -6.233185e+000 59 47 23
-1.299680e+000 4.376835e-001 -9.891397e+000 42 46 31
2.391682e-001 5.435024e-001 -6.233704e+000 121 112 79
2.860221e-001 5.745845e-001 -6.257308e+000 148 134 108
1.056685e+001 7.171837e-001 -3.643833e+001 249 117 124
9.574428e+000 8.324242e-001 -3.770542e+001 211 111 115
9.337842e+000 8.350573e-001 -3.684210e+001 211 111 115
1.295536e+001 9.305355e-001 -3.628059e+001 253 240 215
9.582245e+000 9.345787e-001 -3.703152e+001 229 120 130
1.136643e+001 2.179097e+000 -3.704089e+001 218 213 190
2.895180e-001 7.483608e-001 -6.212510e+000 134 129 97
9.645733e+000 2.883847e+000 -3.767110e+001 188 175 150
-2.355422e-001 1.073943e+000 -1.092727e+001 59 55 39
8.119714e+000 2.958842e+000 -3.787309e+001 211 198 171
7.970583e+000 2.963724e+000 -3.773708e+001 206 199 173
1.284362e+001 3.716236e+000 -3.601683e+001 248 254 248
9.036159e+000 3.966289e+000 -3.734238e+001 206 212 210
9.755322e+000 4.008533e+000 -3.722087e+001 194 206 215
1.128292e+001 4.248980e+000 -3.684532e+001 235 209 189
1.201001e+001 4.274935e+000 -3.646816e+001 253 239 210
1.116890e+001 4.266806e+000 -3.618732e+001 255 242 221
1.221772e+001 4.455862e+000 -3.660581e+001 177 158 135
1.196172e+001 4.457618e+000 -3.651553e+001 201 180 157
1.125886e+001 4.562776e+000 -3.717468e+001 189 164 141
1.055525e+001 4.713438e+000 -3.818821e+001 192 165 149
9.686025e+000 4.826684e+000 -3.741264e+001 195 181 163
2.554154e+000 2.409072e+000 -1.285294e+001 252 213 154
2.173842e+000 2.420614e+000 -1.292767e+001 100 49 11
3.251272e+000 2.438753e+000 -1.264730e+001 79 36 3
2.417188e+000 2.549529e+000 -1.304839e+001 249 205 149
2.523024e+000 2.507511e+000 -1.283327e+001 254 198 136
2.621827e+000 2.512321e+000 -1.277911e+001 255 227 159
2.979446e+000 2.494427e+000 -1.262299e+001 230 181 119
2.175693e+000 2.576749e+000 -1.283416e+001 238 183 122
-2.702814e+000 2.898056e+000 -1.333791e+001 77 69 48
2.717235e-001 1.448553e+000 -5.499289e+000 160 153 134
2.047088e-001 1.462410e+000 -5.503512e+000 101 91 66
3.906353e-001 -2.969935e-001 -6.422193e+000 126 113 93
1.737331e-001 1.478223e-001 -6.334764e+000 141 131 104
2.217863e-001 3.153492e-001 -6.263979e+000 105 98 79
-1.105311e+000 -8.802278e-002 -1.059443e+001 55 42 17
-1.151338e+000 -7.581572e-002 -1.063260e+001 48 52 50
-1.570646e+000 3.471653e-001 -1.030533e+001 87 94 62
-1.570646e+000 3.471653e-001 -1.030533e+001 87 94 62
3.344304e-001 5.784825e-001 -6.234431e+000 127 116 97
1.434387e-001 6.384902e-001 -6.123846e+000 109 98 77
2.294004e-001 6.683526e-001 -6.217707e+000 84 73 45
1.222853e+001 2.082936e+000 -3.618355e+001 217 206 185
1.268909e+001 2.754749e+000 -3.614465e+001 207 204 184
2.563363e-001 7.870625e-001 -6.185368e+000 100 94 82
-1.523223e+000 9.910996e-001 -8.912728e+000 183 143 90
1.105378e+001 3.625796e+000 -3.690038e+001 246 251 254
8.100845e+000 3.736724e+000 -3.745943e+001 202 195 166
1.196674e+001 3.785015e+000 -3.634926e+001 250 253 253
8.915352e+000 4.498722e+000 -3.762872e+001 203 184 158
1.005043e+001 4.551044e+000 -3.673077e+001 189 169 145
8.738707e+000 5.402909e+000 -3.790825e+001 246 240 192
2.268762e+000 2.407050e+000 -1.297166e+001 247 197 155
2.342108e+000 2.451425e+000 -1.300297e+001 187 132 64
1.764518e+000 2.744007e+000 -1.405334e+001 96 86 50
2.156861e+000 2.525304e+000 -1.286150e+001 230 177 121
2.191095e+000 2.617165e+000 -1.279924e+001 246 205 149
2.271977e+000 2.648947e+000 -1.281278e+001 89 44 20
2.247432e+000 2.675251e+000 -1.283845e+001 215 183 136
2.292826e+000 2.701952e+000 -1.285435e+001 68 35 15
2.292826e+000 2.701952e+000 -1.285435e+001 68 35 15
2.305107e+000 2.711538e+000 -1.283000e+001 240 199 144
2.825692e+000 2.813286e+000 -1.255185e+001 225 154 106
-1.393238e+000 2.290420e+000 -1.013860e+001 41 11 0
-1.723622e+000 2.335553e+000 -9.771152e+000 228 213 190
-2.602058e-002 1.456241e+000 -5.583138e+000 211 197 168
1.173568e-001 1.442718e+000 -5.524346e+000 207 194 162
2.789071e-001 1.441937e+000 -5.499694e+000 120 110 87
1.547266e-001 1.448334e+000 -5.512613e+000 162 149 132
2.345248e-001 -4.728079e-001 -6.455504e+000 48 56 55
2.849917e-001 -3.178952e-001 -6.461974e+000 146 132 105
2.801156e-001 -2.413631e-001 -6.442796e+000 68 55 36
2.668669e-001 -5.646585e-002 -6.389121e+000 102 87 68
1.985316e-001 3.435437e-001 -6.236558e+000 95 85 76
2.396795e-001 3.477772e-001 -6.270488e+000 103 94 75
-1.200592e+000 -4.141896e-002 -1.068113e+001 175 178 176
2.380000e-001 4.391184e-001 -6.251418e+000 62 50 26
2.602270e-001 6.038863e-001 -6.230147e+000 47 40 14
1.251066e+001 1.539498e+000 -3.636253e+001 207 201 176
1.277302e+001 2.467953e+000 -3.626094e+001 205 205 177
-1.470134e+000 8.719888e-001 -8.918000e+000 179 150 107
2.539513e-001 7.406165e-001 -6.191585e+000 63 57 33
1.235431e+001 2.749164e+000 -3.630304e+001 254 250 217
1.198745e+001 2.846545e+000 -3.663623e+001 212 205 185
9.564086e+000 2.975008e+000 -3.741575e+001 253 250 227
1.147890e+001 3.053783e+000 -3.627265e+001 209 209 175
2.974968e-001 8.116947e-001 -6.200662e+000 157 145 120
2.966972e-001 8.126172e-001 -6.210008e+000 157 145 120
9.905397e+000 3.540341e+000 -3.714704e+001 246 252 254
1.200912e+001 3.646605e+000 -3.650161e+001 189 201 196
1.131581e+001 4.365643e+000 -3.689500e+001 226 199 180
3.390217e-001 9.226858e-001 -5.911509e+000 196 183 150
-2.980711e-002 1.000732e+000 -6.281481e+000 82 66 39
-2.722634e-002 1.010527e+000 -6.269797e+000 237 218 169
3.660080e-002 1.020009e+000 -6.242545e+000 212 191 149
3.312377e-001 9.781849e-001 -5.903585e+000 225 210 171
2.120461e+000 2.478596e+000 -1.302559e+001 193 130 58
2.272633e+000 2.495338e+000 -1.298750e+001 200 159 119
2.521163e+000 2.467973e+000 -1.283030e+001 97 43 2
2.610270e+000 2.461659e+000 -1.276222e+001 251 212 153
2.483473e+000 2.528039e+000 -1.277650e+001 254 215 142
2.227181e+000 2.608580e+000 -1.276198e+001 208 155 104
2.472417e+000 2.640406e+000 -1.286446e+001 47 13 0
2.513880e+000 2.627762e+000 -1.280598e+001 103 57 8
2.694718e+000 2.671458e+000 -1.278278e+001 253 221 152
-3.143672e+000 2.821291e+000 -1.335805e+001 114 101 87
-2.898939e+000 2.838847e+000 -1.324177e+001 97 82 54
-2.703766e+000 2.922223e+000 -1.340455e+001 77 70 52
4.868258e-001 1.215477e+000 -5.961404e+000 215 184 148
-2.100976e+000 2.647839e+000 -1.145008e+001 21 10 2
-1.732097e+000 2.246586e+000 -9.775747e+000 209 194 185
-1.732097e+000 2.246586e+000 -9.775747e+000 209 194 185
4.936621e-001 1.351804e+000 -5.648778e+000 229 200 156
4.712223e-001 1.447617e+000 -5.526602e+000 180 168 144
7.415493e-002 1.451582e+000 -5.535812e+000 186 175 149
1.177442e-001 1.447636e+000 -5.522353e+000 94 84 58
-8.775900e-003 1.472420e+000 -5.569387e+000 147 137 113
4.717470e-001 1.463153e+000 -5.524989e+000 158 148 122
3.221998e-001 1.453804e+000 -5.492460e+000 163 157 134
2.367805e-001 -2.232958e-001 -6.402395e+000 61 55 31
2.844231e-001 -2.272344e-001 -6.439796e+000 141 129 104
2.851748e-001 -1.363248e-001 -6.416392e+000 142 131 103
2.230515e-001 -2.266729e-002 -6.345011e+000 110 99 81
2.078208e-001 -3.620777e-003 -6.321894e+000 112 99 80
2.377799e-001 2.175391e-001 -6.301038e+000 66 58 37
2.829072e-001 3.051303e-001 -6.314828e+000 81 65 32
3.397272e-001 4.441463e-001 -6.263935e+000 156 142 113
3.053175e-001 6.118838e-001 -6.240086e+000 164 150 123
2.663427e-001 6.240211e-001 -6.232399e+000 95 88 64
3.058421e-001 6.536369e-001 -6.231068e+000 164 150 123
1.542962e-001 6.894955e-001 -6.119684e+000 100 88 73
7.918294e+000 2.873365e+000 -3.769107e+001 254 250 222
2.084388e+000 1.740324e+000 -1.717759e+001 59 51 40
1.086955e+001 3.469413e+000 -3.672620e+001 249 253 255
1.086955e+001 3.469413e+000 -3.672620e+001 249 253 255
1.741065e+000 1.776007e+000 -1.721111e+001 46 41 35
1.026824e+001 3.918189e+000 -3.714557e+001 252 255 253
1.107002e+001 4.732175e+000 -3.674822e+001 255 253 231
9.695474e+000 5.270235e+000 -3.749206e+001 193 185 152
9.504904e+000 5.401106e+000 -3.735984e+001 218 212 150
1.605099e-001 9.546885e-001 -6.066721e+000 128 119 107
-3.731610e-002 1.015997e+000 -6.274399e+000 202 181 151
4.042470e-002 1.024792e+000 -6.244005e+000 97 73 35
4.547387e-001 1.013031e+000 -5.965725e+000 236 217 194
2.541427e+000 2.386319e+000 -1.280935e+001 254 216 157
3.435693e-001 1.046280e+000 -5.924858e+000 250 221 179
2.185190e+000 2.479782e+000 -1.292574e+001 254 223 164
3.337272e+000 2.498342e+000 -1.252665e+001 92 49 9
2.556919e+000 2.555161e+000 -1.280285e+001 252 212 140
2.711238e+000 2.641799e+000 -1.278619e+001 250 210 153
2.178295e+000 2.824257e+000 -1.287639e+001 255 209 139
8.081304e-002 1.458460e+000 -5.532233e+000 93 84 67
2.823269e-001 1.450486e+000 -5.499784e+000 173 165 144
2.774795e-001 1.459719e+000 -5.493705e+000 101 91 66
4.700107e-001 1.828710e-001 -6.313090e+000 157 176 206
2.835730e-001 1.278255e+000 -5.626588e+000 203 164 117
4.307259e-001 2.614874e-001 -6.289508e+000 163 181 205
4.307259e-001 2.614874e-001 -6.289508e+000 163 181 205
1.405281e+001 7.255459e-001 -3.540667e+001 232 111 108
3.810138e-001 -2.017643e-001 -6.426302e+000 17 14 15
2.369461e-001 -3.955789e-001 -6.436322e+000 9 7 12
2.652287e-001 6.261600e-001 -6.231529e+000 91 76 55
3.617147e-001 -9.956464e-002 -6.389898e+000 7 4 4
1.423525e+001 1.183044e+000 -3.501876e+001 254 255 252
1.267008e+001 4.600639e+000 -3.498650e+001 250 253 248
1.397658e-003 2.632341e+000 -1.080179e+001 31 24 9
1.399292e+001 9.469229e-001 -3.476218e+001 243 113 120
1.294079e+001 3.049338e+000 -3.553554e+001 253 252 255
1.300094e+001 3.337245e+000 -3.575171e+001 187 183 164
1.216709e+001 3.436593e+000 -3.614718e+001 190 177 165
1.207213e+001 3.518435e+000 -3.663827e+001 241 244 243
1.117754e+001 3.507472e+000 -3.614900e+001 166 157 136
1.326098e+001 3.623560e+000 -3.543397e+001 195 214 225
1.167089e+001 3.732792e+000 -3.611476e+001 243 253 253
9.488019e-002 1.284640e+000 -1.034717e+001 57 40 13
1.231075e+000 2.322889e+000 -1.705247e+001 53 44 14
1.231075e+000 2.322889e+000 -1.705247e+001 53 44 14
-6.940542e-002 2.598183e+000 -1.066128e+001 23 19 13
1.487398e-001 1.346682e+000 -5.636741e+000 216 182 134
7.662958e-002 1.444719e+000 -5.535308e+000 200 176 149
2.108627e+001 -2.721363e+000 -3.595143e+001 253 244 211
2.085127e+001 -2.533055e+000 -3.629330e+001 192 154 115
2.085127e+001 -2.533055e+000 -3.629330e+001 192 154 115
2.936811e-001 4.651082e-001 -6.275517e+000 156 142 113
3.907182e+000 6.244978e-001 -1.483093e+001 253 113 118
3.907182e+000 6.244978e-001 -1.483093e+001 253 113 118
1.119258e+001 2.165735e+000 -3.735128e+001 224 213 188
1.300421e+001 2.528094e+000 -3.593972e+001 195 179 166
1.775775e-002 1.094163e+000 -1.041017e+001 74 63 21
1.845389e+000 1.679395e+000 -1.688124e+001 73 61 52
4.290510e+000 1.772385e+000 -1.718797e+001 238 242 243
1.299597e+001 3.344989e+000 -3.512640e+001 234 239 234
1.390221e+001 3.433121e+000 -3.591992e+001 252 252 229
1.281885e+001 3.432022e+000 -3.576422e+001 249 250 252
1.466279e-001 1.338594e+000 -1.036851e+001 53 47 36
1.195039e+000 2.175187e+000 -1.718151e+001 126 110 69
1.095753e+001 4.593461e+000 -3.732483e+001 207 177 158
1.284891e+000 2.263539e+000 -1.706467e+001 204 192 172
8.505490e+000 4.359926e+000 -3.123157e+001 140 106 53
3.000227e-001 1.050894e+000 -5.922675e+000 236 196 144
4.857799e-001 2.666551e+000 -1.089342e+001 163 129 86
2.945244e-001 1.207709e+000 -5.643537e+000 223 175 133
2.917048e-002 1.360439e+000 -5.688789e+000 203 169 123
8.074208e-002 1.353418e+000 -5.656018e+000 201 169 124
-1.997250e-001 1.513021e+000 -5.743979e+000 120 106 79
3.308883e-001 -4.117727e-001 -6.471317e+000 116 106 85
2.103831e+001 -2.290584e+000 -3.714928e+001 97 77 68
-1.092383e-001 1.047663e+000 -1.076972e+001 50 42 19
1.373066e+001 3.350356e+000 -3.511163e+001 182 175 156
1.373066e+001 3.350356e+000 -3.511163e+001 182 175 156
1.373532e+001 3.585074e+000 -3.506640e+001 196 188 165
1.373532e+001 3.585074e+000 -3.506640e+001 196 188 165
1.092473e+000 2.186515e+000 -1.718450e+001 203 190 178
1.088525e+000 2.249651e+000 -1.712712e+001 131 115 75
1.088525e+000 2.249651e+000 -1.712712e+001 131 115 75
3.272577e+000 1.508657e+000 -8.977307e+000 49 29 16
3.746758e-001 1.021236e+000 -5.911712e+000 129 96 63
3.010664e-001 1.021319e+000 -5.899742e+000 129 92 50
-1.350566e-001 2.484048e+000 -1.070810e+001 31 21 19
-4.196543e-002 2.577510e+000 -1.070737e+001 186 173 152
-4.196543e-002 2.577510e+000 -1.070737e+001 186 173 152
3.688495e-001 1.444288e+000 -5.501945e+000 131 115 90
1.764946e-001 1.460895e+000 -5.506772e+000 95 82 63
4.463414e-002 1.470132e+000 -5.542621e+000 101 89 63
3.675579e-001 -2.144047e-001 -6.411617e+000 115 108 79
2.095362e+001 -1.682785e+000 -3.687821e+001 84 65 56
1.199017e-001 5.925633e-001 -6.109573e+000 66 51 30
1.366695e+001 1.097132e+000 -3.645661e+001 198 197 193
1.188893e+001 2.615225e+000 -3.562482e+001 168 157 137
1.078777e+001 4.443954e+000 -3.740217e+001 241 223 203
1.310489e+001 4.323544e+000 -3.542425e+001 254 249 231
1.056341e+001 4.605773e+000 -3.705363e+001 183 169 150
1.293628e+001 4.944989e+000 -3.526517e+001 137 129 110
-8.000855e-002 2.477269e+000 -1.072051e+001 184 167 149
-7.586623e-002 2.525262e+000 -1.070294e+001 157 150 147
-7.586623e-002 2.525262e+000 -1.070294e+001 157 150 147
2.711016e-001 1.441777e+000 -5.501043e+000 121 109 86
2.629733e-001 1.445339e+000 -5.498791e+000 157 144 125
1.175003e-001 1.448506e+000 -5.523369e+000 103 88 64
2.713056e-001 1.458412e+000 -5.496495e+000 97 84 66
3.571446e-001 -3.774711e-001 -6.455304e+000 16 9 4
3.495200e-001 -1.809423e-001 -6.412242e+000 115 104 81
1.151857e-001 3.879186e-002 -6.234476e+000 115 102 85
4.196345e-001 3.508977e-001 -6.257251e+000 124 117 96
2.107548e+001 -2.808891e+000 -3.743638e+001 70 62 56
2.096567e+001 -1.920247e+000 -3.691781e+001 108 91 66
2.121012e+001 -1.800986e+000 -3.743845e+001 223 207 197
1.084546e+001 8.134064e-001 -3.746559e+001 247 171 170
-8.372965e-002 1.030524e+000 -1.076815e+001 114 111 94
-8.372965e-002 1.030524e+000 -1.076815e+001 114 111 94
1.297900e+001 2.650147e+000 -3.555239e+001 240 234 207
1.912927e+000 1.753679e+000 -1.711127e+001 244 236 224
1.376030e+001 3.218521e+000 -3.538851e+001 253 242 215
1.115260e+001 3.652265e+000 -3.715952e+001 248 252 251
1.253461e+001 3.775462e+000 -3.596490e+001 204 212 217
1.003301e+001 4.020433e+000 -3.734178e+001 204 212 214
9.070843e+000 4.062989e+000 -3.741704e+001 203 215 229
1.287012e-001 1.390692e+000 -1.036315e+001 169 143 80
3.198912e-001 9.479335e-001 -5.910420e+000 230 206 162
1.402793e-001 9.886389e-001 -6.045504e+000 123 113 101
3.646805e-001 9.864304e-001 -5.890429e+000 181 163 141
2.819902e+000 2.214009e+000 -1.302941e+001 89 51 18
3.117976e+000 2.477041e+000 -1.255387e+001 188 123 55
2.829998e-001 1.213815e+000 -5.877932e+000 52 11 0
-1.113896e-001 2.532719e+000 -1.070195e+001 142 133 126
2.603979e-001 9.107178e-001 -4.510820e+000 180 166 140
-7.911920e-002 1.484043e+000 -5.747694e+000 197 164 119
-1.585618e-001 1.482910e+000 -5.698861e+000 234 213 182
3.385414e-001 1.444049e+000 -5.498717e+000 126 112 86
-9.113466e-002 1.479791e+000 -5.627230e+000 116 98 74
-9.139640e-002 1.478889e+000 -5.626094e+000 116 98 74
-1.640995e-005 1.465080e+000 -5.565936e+000 156 143 126
2.352639e-001 3.873638e-001 -6.277110e+000 120 111 91
1.193548e+001 1.205780e+000 -3.626262e+001 190 137 129
1.381148e+001 1.824705e+000 -3.324150e+001 196 192 186
-1.516097e-001 1.022274e+000 -1.080409e+001 58 48 39
1.362777e+001 3.185088e+000 -3.493037e+001 240 229 202
2.081080e-001 8.271951e-001 -6.193032e+000 135 131 113
9.920565e+000 3.594828e+000 -3.774717e+001 249 250 250
8.783609e+000 3.721044e+000 -3.830932e+001 252 243 218
1.329154e+001 3.416321e+000 -3.536962e+001 204 211 205
8.728886e+000 3.801072e+000 -3.811573e+001 255 247 220
1.112706e+001 3.740492e+000 -3.717100e+001 200 205 208
1.289869e+001 3.749688e+000 -3.586214e+001 196 207 213
3.308723e+000 1.412284e+000 -1.095260e+001 51 34 9
3.197467e+000 1.260479e+000 -8.873364e+000 151 120 77
1.359523e+000 2.356853e+000 -1.721883e+001 136 118 94
4.773441e-003 1.059001e+000 -6.277311e+000 70 46 18
2.936854e+000 2.419452e+000 -1.256022e+001 245 190 134
4.041964e+000 2.314184e+000 -9.978057e+000 104 88 54
2.709776e-001 1.223466e+000 -5.879907e+000 255 228 175
1.417182e-001 1.225292e+000 -5.664754e+000 255 238 197
1.329467e-001 1.225843e+000 -5.667143e+000 255 228 193
-3.442125e-001 1.697349e+000 -6.497795e+000 114 98 73
3.119161e-001 1.442411e+000 -5.496486e+000 112 100 82
-5.496779e-002 1.464003e+000 -5.600926e+000 117 97 72
3.201603e-001 1.445731e+000 -5.499201e+000 105 93 69
1.486186e-001 1.447375e+000 -5.515442e+000 103 90 69
1.487005e-001 1.447424e+000 -5.515627e+000 103 90 69
-3.833120e-001 1.352250e+000 -5.175464e+000 219 199 163
8.046357e-002 3.330605e-002 -6.251731e+000 68 50 28
2.122971e+001 -2.865713e+000 -3.580558e+001 176 160 133
2.086102e+001 -1.909611e+000 -3.570729e+001 251 233 182
2.959531e-001 4.610524e-001 -6.276532e+000 179 165 137
3.365568e-001 4.718102e-001 -6.257444e+000 158 143 117
3.409327e-001 5.019048e-001 -6.252261e+000 19 11 0
1.044994e+001 1.742607e+000 -3.703160e+001 252 246 223
1.282192e+001 2.449044e+000 -3.611590e+001 208 207 187
1.235829e+001 2.497200e+000 -3.647952e+001 212 208 196
1.054152e+001 2.682006e+000 -3.710718e+001 255 254 227
1.103529e+001 2.744086e+000 -3.752917e+001 204 190 167
1.185560e+001 2.799246e+000 -3.667236e+001 218 214 190
1.185560e+001 2.799246e+000 -3.667236e+001 218 214 190
-2.640506e-001 1.156461e+000 -9.902143e+000 192 185 161
1.278740e+001 3.341163e+000 -3.573783e+001 255 254 255
1.075017e+001 3.739446e+000 -3.719262e+001 250 254 253
2.801972e-001 8.599583e-001 -6.189538e+000 91 81 69
2.911935e-001 8.629361e-001 -6.193814e+000 152 141 115
1.306055e-001 1.342420e+000 -1.041434e+001 54 45 41
1.167508e+001 4.309416e+000 -3.686638e+001 255 239 219
1.036917e+001 4.382403e+000 -3.085085e+001 248 230 180
-5.678366e-002 1.467098e+000 -5.601045e+000 177 159 135
8.871921e-003 1.457044e+000 -5.561386e+000 191 176 153
1.982319e-001 1.447430e+000 -5.505611e+000 204 190 163
6.944451e-002 1.452352e+000 -5.534972e+000 128 111 83
3.577137e-001 -2.885050e-001 -6.433269e+000 7 6 1
1.602376e+001 -4.703572e+000 -1.995148e+001 132 128 125
-1.706549e-001 1.501328e+000 -5.706020e+000 117 110 84
1.476370e+001 -4.684579e+000 -1.925737e+001 249 238 158
1.507238e+001 -4.223654e+000 -2.049096e+001 91 64 44
1.555803e+001 -3.987579e+000 -1.944652e+001 80 70 57
1.555803e+001 -3.987579e+000 -1.944652e+001 80 70 57
1.555803e+001 -3.987579e+000 -1.944652e+001 80 70 57
1.504146e+001 -3.541098e+000 -1.887478e+001 229 221 191
1.504146e+001 -3.541098e+000 -1.887478e+001 229 221 191
1.525966e+001 -3.676765e+000 -2.054216e+001 93 70 55
4.163276e-002 1.299807e+000 -6.022268e+000 179 138 84
-1.089101e-001 1.387401e+000 -5.810762e+000 192 164 117
-1.089101e-001 1.387401e+000 -5.810762e+000 192 164 117
4.773230e-001 -6.833027e-002 -6.378625e+000 14 12 8
1.505961e+001 -4.917580e+000 -2.028941e+001 255 241 215
1.524666e+001 -4.950008e+000 -2.074232e+001 135 130 129
1.504407e+001 -4.439906e+000 -1.944723e+001 254 239 158
2.813323e-001 1.009090e+000 -5.908546e+000 251 225 180
2.491027e+000 2.401724e+000 -1.280906e+001 237 197 135
2.482094e+000 2.535697e+000 -1.281456e+001 254 208 144
2.415043e+000 2.592513e+000 -1.283047e+001 69 38 18
2.415043e+000 2.592513e+000 -1.283047e+001 69 38 18
2.415043e+000 2.592513e+000 -1.283047e+001 69 38 18
2.408241e+000 2.849601e+000 -1.249246e+001 235 216 184
-1.453410e-001 1.492144e+000 -5.678275e+000 140 128 106
4.537162e-001 -3.371079e-001 -6.410359e+000 106 96 71
1.498176e+001 -3.062796e+000 -1.858343e+001 125 116 96
2.244664e+000 2.384394e+000 -1.302290e+001 248 189 121
-1.031074e-001 1.402053e+000 -5.795554e+000 248 216 165
-2.338447e-001 1.513210e+000 -5.803497e+000 97 85 69
3.868274e-001 -2.842859e-001 -6.418646e+000 116 104 74
2.435633e+000 2.417956e+000 -1.312310e+001 33 8 7
2.219493e+000 2.474277e+000 -1.296865e+001 224 179 115
2.419560e+000 2.523493e+000 -1.289594e+001 229 192 127
2.423450e+000 2.576547e+000 -1.285086e+001 59 34 12
2.198957e+000 2.658815e+000 -1.283853e+001 25 9 5
2.269426e+000 2.742256e+000 -1.277776e+001 195 144 68
2.308029e+000 2.728181e+000 -1.269173e+001 204 164 102
2.344421e+000 2.794850e+000 -1.278615e+001 84 39 18
-1.528659e-001 1.482289e+000 -5.862003e+000 190 161 117
-1.528659e-001 1.482289e+000 -5.862003e+000 190 161 117
8.596440e-002 1.452674e+000 -5.531316e+000 108 100 79
-1.532644e-001 1.481764e+000 -5.689534e+000 216 200 165
1.534134e+001 -4.879743e+000 -1.923577e+001 167 158 151
1.534134e+001 -4.879743e+000 -1.923577e+001 167 158 151
1.536214e+001 -4.974994e+000 -2.037530e+001 101 94 79
1.536214e+001 -4.974994e+000 -2.037530e+001 101 94 79
1.539226e+001 -4.841955e+000 -2.103045e+001 246 226 202
1.530891e+001 -4.597775e+000 -1.914569e+001 133 118 95
1.521497e+001 -4.260322e+000 -2.079246e+001 68 46 44
1.509923e+001 -3.938866e+000 -1.883338e+001 146 130 107
1.509923e+001 -3.938866e+000 -1.883338e+001 146 130 107
1.536792e+001 -3.714557e+000 -1.907778e+001 243 229 202
1.512146e+001 -3.667379e+000 -1.916149e+001 133 115 93
1.512146e+001 -3.667379e+000 -1.916149e+001 133 115 93
2.171553e+000 2.423299e+000 -1.294104e+001 81 34 2
2.352946e+000 2.502100e+000 -1.298932e+001 156 92 30
2.352946e+000 2.502100e+000 -1.298932e+001 156 92 30
2.302705e+000 2.529597e+000 -1.296334e+001 238 205 147
2.618635e+000 2.556739e+000 -1.285809e+001 195 133 60
2.618635e+000 2.556739e+000 -1.285809e+001 195 133 60
2.085853e+000 2.566122e+000 -1.275649e+001 234 198 134
2.320505e+000 2.634441e+000 -1.279142e+001 98 52 8
2.970921e-002 1.177604e+000 -6.084777e+000 191 158 112
2.334310e+000 2.748493e+000 -1.265812e+001 101 64 38
2.476140e+000 2.785145e+000 -1.277382e+001 227 180 113
2.304976e+000 2.819268e+000 -1.276914e+001 191 145 87
2.290422e+000 2.851565e+000 -1.271550e+001 89 44 21
-1.059438e-001 1.491168e+000 -5.778092e+000 197 166 119
-2.106480e-001 1.501190e+000 -5.758333e+000 106 90 65
-1.061230e-001 1.475623e+000 -5.640732e+000 134 119 88
2.292837e-001 -2.722107e-001 -6.622190e+000 75 73 61
4.097166e-001 8.464644e-003 -6.341073e+000 136 129 103
1.547715e+001 -4.850739e+000 -2.047133e+001 126 113 101
1.522512e+001 -4.369260e+000 -2.089362e+001 236 222 199
1.546020e+001 -4.235139e+000 -2.085147e+001 61 39 34
1.507286e+001 -2.564016e+000 -1.880310e+001 248 239 208
1.540802e+001 -2.020724e+000 -1.896603e+001 251 251 225
1.537514e+001 -1.888769e+000 -2.024026e+001 55 41 35
1.513926e+001 -1.322202e+000 -1.866769e+001 148 127 94
2.422151e+000 2.388819e+000 -1.299257e+001 184 147 95
2.417523e+000 2.628082e+000 -1.286034e+001 36 10 7
2.547060e+000 2.639540e+000 -1.275352e+001 254 223 165
2.429802e+000 2.695825e+000 -1.279029e+001 104 55 12
2.429802e+000 2.695825e+000 -1.279029e+001 104 55 12
2.562950e+000 2.780615e+000 -1.268899e+001 185 137 69
1.795161e+000 2.694052e+000 -1.116280e+001 214 199 168
1.795161e+000 2.694052e+000 -1.116280e+001 214 199 168
-1.043470e-001 1.379153e+000 -5.801904e+000 243 210 165
-8.050266e-002 1.377191e+000 -5.771377e+000 171 137 93
1.502398e+001 -4.745027e+000 -1.936818e+001 149 121 81
2.495377e+000 2.371046e+000 -1.304311e+001 229 192 140
2.491455e+000 2.511141e+000 -1.287783e+001 227 184 111
2.200794e+000 2.519060e+000 -1.289644e+001 87 51 7
2.149986e+000 2.553253e+000 -1.284211e+001 117 67 11
2.296982e+000 2.565171e+000 -1.273142e+001 221 168 110
2.356384e+000 2.724177e+000 -1.270936e+001 223 189 144
2.356384e+000 2.724177e+000 -1.270936e+001 223 189 144
1.800728e+000 2.767610e+000 -1.282661e+001 246 232 202
2.442068e+000 2.874487e+000 -1.242727e+001 154 131 101
-1.599549e-001 1.492653e+000 -5.697058e+000 174 162 138
3.853802e-001 1.350881e-001 -6.324659e+000 91 82 71
1.527564e+001 -2.523753e+000 -2.063485e+001 123 98 74
4.739796e-001 6.480024e-001 -6.174909e+000 143 129 100
3.140248e+000 1.123819e+000 -1.079935e+001 72 68 52
2.194432e+000 2.405926e+000 -1.293056e+001 240 196 149
2.421289e+000 2.448186e+000 -1.296393e+001 212 166 108
2.304985e+000 2.481017e+000 -1.299481e+001 222 190 152
2.397006e+000 2.549940e+000 -1.299143e+001 247 199 137
2.418309e+000 2.731466e+000 -1.282729e+001 60 14 0
2.145740e+000 2.752685e+000 -1.276452e+001 248 208 137
2.437855e+000 2.768916e+000 -1.277027e+001 58 12 0
2.371038e+000 2.782599e+000 -1.270172e+001 248 199 146
1.785576e+000 2.816066e+000 -1.280808e+001 245 230 197
2.347736e+000 2.903016e+000 -1.251650e+001 237 193 133
3.029400e-001 1.210864e+000 -5.637037e+000 248 230 182
-1.291983e-001 1.475881e+000 -5.665897e+000 190 169 138
-1.981584e-001 1.491746e+000 -5.733360e+000 146 130 104
1.526229e+001 -4.808191e+000 -2.102897e+001 63 52 40
2.922224e-001 3.791988e-001 -6.301312e+000 152 138 106
3.489842e-001 4.449702e-001 -6.262160e+000 94 83 53
2.408114e+000 2.660442e+000 -1.276619e+001 254 229 168
2.204970e+000 2.692325e+000 -1.284303e+001 233 195 153
2.442530e+000 2.753840e+000 -1.278949e+001 251 203 149
2.555225e+000 2.770370e+000 -1.273313e+001 255 213 138
1.498676e+000 2.878709e+000 -1.399951e+001 110 83 54
1.530025e+000 2.835592e+000 -1.401664e+001 32 23 1
1.340793e+000 2.918191e+000 -1.392833e+001 74 52 6
2.479293e+000 2.691999e+000 -1.283654e+001 250 220 150
1.993204e-001 5.904337e-001 -3.555315e+000 0 255 0
2.006898e-001 5.897006e-001 -3.605290e+000 255 255 0
-2.865946e-001 6.043502e-001 -3.618147e+000 255 0 0
-2.757866e-001 6.042910e-001 -3.666965e+000 255 255 0
-1.475010e+000 7.212361e-001 -4.116139e+000 0 255 0
-1.443580e+000 7.194206e-001 -4.154983e+000 255 255 0
7.484187e-001 6.028278e-001 -3.607524e+000 255 0 0
7.400262e-001 6.032599e-001 -3.656812e+000 255 255 0
-9.493036e-001 6.457573e-001 -3.793395e+000 0 255 0
-9.269688e-001 6.437557e-001 -3.838084e+000 255 255 0
