ply
format ascii 1.0
element face 0
property list uchar int vertex_indices
element vertex 884
property float x
property float y
property float z
property uchar diffuse_red
property uchar diffuse_green
property uchar diffuse_blue
end_header
1.069597e-001 1.323528e+000 -5.779237e+000 247 225 172
2.425481e-001 5.195190e-001 -6.457677e+000 67 54 35
4.427281e-001 -1.232288e-001 -6.367512e+000 111 99 71
3.675266e-001 -6.857793e-002 -6.380759e+000 7 6 1
2.998954e+000 2.484437e+000 -1.196559e+001 156 110 44
4.478634e-001 -6.957869e-002 -6.367167e+000 117 99 63
4.570814e-001 2.066120e-001 -6.285814e+000 130 122 86
8.007699e-002 1.088763e+000 -6.243389e+000 50 24 6
2.668856e+000 2.462046e+000 -1.200965e+001 217 165 98
2.669567e+000 2.607109e+000 -1.188940e+001 247 207 138
3.539503e-002 1.436955e+000 -5.654147e+000 82 68 55
2.534026e-001 1.783119e-001 -6.492487e+000 98 82 61
2.635923e+000 2.381493e+000 -1.205184e+001 2 4 1
2.855480e+000 2.567744e+000 -1.194244e+001 44 23 17
2.835290e+000 2.636218e+000 -1.195994e+001 242 202 138
2.994478e+000 2.643373e+000 -1.191808e+001 41 16 8
-1.276839e-001 1.497414e+000 -6.073257e+000 221 196 155
4.061888e+000 1.780800e+000 -1.281247e+001 110 89 72
4.061888e+000 1.780800e+000 -1.281247e+001 110 89 72
1.255077e-001 1.083414e+000 -6.200200e+000 53 43 23
2.871463e+000 2.612082e+000 -1.184292e+001 230 177 106
2.652279e+000 2.683855e+000 -1.181913e+001 213 159 87
2.564780e-001 -1.266535e-001 -6.553691e+000 90 83 56
1.968750e-001 3.112498e-001 -6.287701e+000 120 108 81
2.522741e-001 4.631497e-001 -6.396041e+000 91 79 60
2.306755e-001 8.813417e-001 -6.187088e+000 24 24 24
2.959195e-001 1.016104e+000 -5.970805e+000 167 148 115
9.389937e-002 1.082773e+000 -6.217257e+000 226 204 156
2.583791e+000 2.195818e+000 -1.206662e+001 168 103 43
8.477271e-002 1.114643e+000 -6.096496e+000 228 195 149
2.737130e+000 2.373043e+000 -1.208399e+001 62 27 14
2.737130e+000 2.373043e+000 -1.208399e+001 62 27 14
2.987469e+000 2.368625e+000 -1.201968e+001 213 152 93
2.585572e+000 2.633932e+000 -1.190337e+001 223 163 103
2.988911e+000 2.662098e+000 -1.191520e+001 22 6 3
2.988911e+000 2.662098e+000 -1.191520e+001 22 6 3
2.615778e+000 2.699054e+000 -1.198220e+001 57 24 5
5.179050e+000 1.985194e+000 -8.193580e+000 108 99 90
3.080257e-001 1.223212e+000 -5.726510e+000 180 138 95
3.810203e-001 -1.408286e-001 -6.378096e+000 27 22 12
4.482675e-001 -1.594071e-001 -6.373515e+000 89 91 75
2.609315e-001 -1.012877e-001 -6.533498e+000 87 80 68
2.596004e-001 -1.013270e-001 -6.532694e+000 87 80 68
4.928356e+000 8.319620e-001 -8.593661e+000 141 119 86
9.388784e-002 1.070407e+000 -6.220393e+000 209 186 152
1.015798e-001 1.085423e+000 -6.208479e+000 67 53 17
3.132368e-001 1.056351e+000 -5.926509e+000 140 105 67
7.706012e-002 1.114499e+000 -6.127999e+000 63 39 16
3.050655e+000 2.238967e+000 -1.208899e+001 214 158 91
3.027907e+000 2.415818e+000 -1.200619e+001 41 8 4
2.793176e+000 2.482422e+000 -1.196089e+001 22 6 4
2.588082e+000 2.491507e+000 -1.201649e+001 30 7 9
2.845385e+000 2.614380e+000 -1.201832e+001 202 155 79
2.549735e+000 2.587381e+000 -1.196225e+001 236 187 123
2.858977e+000 2.594229e+000 -1.190816e+001 33 6 5
2.612196e+000 2.600195e+000 -1.192962e+001 59 26 7
2.612196e+000 2.600195e+000 -1.192962e+001 59 26 7
2.720365e+000 2.700044e+000 -1.178499e+001 175 127 73
5.189087e+000 1.972110e+000 -8.162735e+000 15 11 13
2.811055e+000 2.519291e+000 -1.051462e+001 126 109 83
2.811055e+000 2.519291e+000 -1.051462e+001 126 109 83
2.469131e+000 2.534029e+000 -1.056236e+001 172 156 131
2.016673e-001 1.432795e+000 -6.419199e+000 109 86 60
-4.455717e-003 1.352504e+000 -5.810161e+000 251 219 170
1.742868e-001 1.419622e+000 -5.599888e+000 98 88 63
-1.787758e-001 1.487036e+000 -5.912534e+000 107 95 68
-9.134871e-002 1.450125e+000 -5.766708e+000 204 188 152
-9.292373e-002 1.455873e+000 -5.765168e+000 121 111 83
2.501888e-001 -1.241656e-001 -6.534824e+000 75 69 50
4.600791e-001 1.228655e-001 -6.304243e+000 25 24 23
3.438779e-001 4.310692e-001 -6.263750e+000 133 122 92
2.992872e+000 2.315312e+000 -1.212990e+001 227 183 120
3.009813e+000 2.337421e+000 -1.206114e+001 76 31 6
2.596178e+000 2.445285e+000 -1.197662e+001 52 22 9
2.626231e+000 2.457451e+000 -1.189790e+001 255 211 150
2.929682e+000 2.490829e+000 -1.186065e+001 242 195 128
2.815107e+000 2.551160e+000 -1.197470e+001 19 5 0
2.502893e+000 2.590601e+000 -1.199044e+001 248 192 125
2.762209e+000 2.606811e+000 -1.193495e+001 89 41 19
2.543088e+000 2.700407e+000 -1.192327e+001 229 178 111
2.379882e+000 2.516172e+000 -1.048816e+001 219 203 177
2.401969e+000 2.536144e+000 -1.045679e+001 231 211 187
1.933780e-001 1.286251e+000 -5.924655e+000 252 218 170
1.024730e-001 1.446000e+000 -6.224806e+000 221 195 146
1.028283e-001 1.460839e+000 -6.224745e+000 205 181 135
-2.338753e-002 1.355361e+000 -5.824089e+000 241 209 160
3.243474e-001 1.427387e+000 -5.583070e+000 171 161 134
2.143484e-001 1.420147e+000 -5.591698e+000 186 172 143
-1.957140e-001 1.512066e+000 -6.007629e+000 80 68 51
3.007624e-001 1.433725e+000 -5.583452e+000 106 99 73
2.607734e-001 1.471867e-001 -6.480202e+000 85 82 66
2.444068e-001 7.216474e-001 -6.389685e+000 95 86 69
4.064537e+000 1.850216e+000 -1.265485e+001 84 66 48
4.015315e+000 1.939854e+000 -1.282376e+001 64 49 40
2.998757e+000 2.219179e+000 -1.227635e+001 77 38 1
2.998757e+000 2.219179e+000 -1.227635e+001 77 38 1
2.997362e+000 2.369818e+000 -1.188851e+001 191 143 97
2.754434e+000 2.388563e+000 -1.197076e+001 193 131 57
2.954169e+000 2.459890e+000 -1.193404e+001 251 203 145
2.886415e+000 2.458804e+000 -1.182276e+001 164 112 51
2.886415e+000 2.458804e+000 -1.182276e+001 164 112 51
2.521950e+000 2.606221e+000 -1.197551e+001 178 119 51
5.183601e+000 1.933239e+000 -8.179224e+000 33 21 26
2.361682e+000 2.732401e+000 -1.181451e+001 150 121 93
2.779299e+000 2.528388e+000 -1.046070e+001 193 177 151
1.991609e+000 2.517102e+000 -1.052452e+001 249 230 198
-1.507576e-001 1.646505e+000 -6.534412e+000 86 69 40
-7.830452e-002 1.461828e+000 -5.897130e+000 176 147 103
-7.830452e-002 1.461828e+000 -5.897130e+000 176 147 103
3.847043e-001 1.434279e+000 -5.588424e+000 92 78 51
-8.464708e-002 1.448920e+000 -5.756733e+000 223 207 171
-2.638291e-002 1.447879e+000 -5.697542e+000 108 94 68
-8.457906e-002 1.464412e+000 -5.759572e+000 112 100 74
3.860915e-001 -1.573511e-001 -6.395277e+000 12 7 2
2.444416e-001 -3.070033e-002 -6.530971e+000 84 81 66
3.282013e-001 7.988871e-001 -6.191395e+000 148 134 107
3.148454e-002 1.052438e+000 -6.248694e+000 236 213 164
6.588489e-002 1.104396e+000 -6.232152e+000 33 6 3
2.695443e+000 2.248060e+000 -1.210632e+001 244 190 133
2.958837e+000 2.315736e+000 -1.213772e+001 227 182 128
2.507799e+000 2.316167e+000 -1.202363e+001 238 179 118
3.092824e+000 2.342142e+000 -1.200493e+001 232 187 130
2.828482e+000 2.437535e+000 -1.178440e+001 255 209 154
2.868202e+000 2.532364e+000 -1.203787e+001 70 26 0
7.834524e-002 1.195977e+000 -6.115426e+000 177 145 104
2.880741e+000 2.473920e+000 -1.173658e+001 228 178 119
2.462782e+000 2.575284e+000 -1.202932e+001 196 129 56
2.615346e+000 2.659057e+000 -1.185784e+001 53 14 0
2.634279e+000 2.691924e+000 -1.178551e+001 255 210 157
3.070422e-001 1.175613e+000 -5.715352e+000 74 44 8
3.070422e-001 1.175613e+000 -5.715352e+000 74 44 8
7.276689e-002 1.295884e+000 -6.122568e+000 224 189 147
2.483557e+000 2.558687e+000 -1.048126e+001 192 172 145
1.767004e-001 1.235980e+000 -5.759644e+000 201 173 131
1.004047e-001 1.348632e+000 -6.010047e+000 247 215 167
3.959619e-002 1.428709e+000 -5.649249e+000 98 83 58
-3.476933e-003 1.439340e+000 -5.678975e+000 172 158 130
-1.878364e-002 1.446423e+000 -5.690947e+000 121 106 82
-1.668977e-001 1.505366e+000 -5.902314e+000 91 80 50
-5.782487e-002 1.457617e+000 -5.725787e+000 168 158 133
-7.048043e-001 1.428493e+000 -5.705941e+000 46 48 45
1.388297e-001 4.504875e-001 -6.169897e+000 88 73 44
3.269993e-001 5.656350e-001 -6.242951e+000 149 136 104
3.269993e-001 5.656350e-001 -6.242951e+000 149 136 104
2.472481e-001 8.879576e-001 -6.393826e+000 81 74 59
2.897380e-001 1.012872e+000 -5.985475e+000 63 48 24
2.507610e-001 1.089117e+000 -6.294008e+000 96 87 70
3.048003e+000 2.215870e+000 -1.219776e+001 90 50 9
2.909414e+000 2.283261e+000 -1.223562e+001 46 8 0
2.436662e+000 2.489232e+000 -1.208636e+001 248 194 134
2.686472e+000 2.467028e+000 -1.193574e+001 255 204 137
2.980238e+000 2.491187e+000 -1.181236e+001 238 180 121
2.656306e+000 2.617116e+000 -1.187724e+001 255 231 164
2.524289e+000 2.733620e+000 -1.195478e+001 249 197 133
7.633086e-002 1.291829e+000 -6.099188e+000 161 128 85
2.461406e+000 2.522981e+000 -1.043518e+001 145 128 103
7.397691e-002 1.306831e+000 -6.141531e+000 131 103 64
3.002336e-002 1.349824e+000 -5.777851e+000 195 163 114
-1.800873e-001 1.490781e+000 -5.916878e+000 79 67 44
-5.307222e-002 1.443516e+000 -5.727198e+000 222 201 170
-1.538010e-001 1.479134e+000 -5.855042e+000 176 165 147
2.396563e-001 -4.718953e-002 -6.341522e+000 80 71 56
3.852800e-001 5.440461e-002 -6.360897e+000 150 137 113
2.391779e-001 3.736460e-001 -6.283755e+000 88 77 55
1.597724e-001 1.058397e-001 -6.270531e+000 28 26 27
3.045880e-001 1.425859e+000 -5.584135e+000 146 139 123
2.467471e-001 8.568485e-002 -6.334576e+000 2 1 0
3.348124e-001 1.018092e+000 -5.932916e+000 212 198 158
5.054145e-001 1.444067e+000 -5.688484e+000 200 182 157
3.137186e-001 1.027660e-001 -6.354458e+000 166 149 121
3.149438e-001 1.521730e-001 -6.348336e+000 161 144 115
2.892472e-001 8.259580e-001 -6.197501e+000 92 80 68
-1.244974e+000 1.129867e+000 -8.621961e+000 46 20 3
4.891624e-001 1.161923e+000 -6.023435e+000 182 158 122
5.270301e-001 1.350850e+000 -5.753806e+000 176 142 104
8.933129e-001 1.669334e+000 -6.521083e+000 210 179 133
4.137191e-001 1.705858e-002 -6.396050e+000 152 174 217
2.976075e-001 2.132153e-002 -6.374372e+000 87 74 57
2.714284e-001 5.738608e-001 -6.223087e+000 135 120 97
3.061379e-001 7.369690e-001 -6.218694e+000 164 153 123
9.234825e-001 2.674986e+000 -1.117813e+001 220 199 168
-4.731284e-001 1.588532e+000 -6.386773e+000 203 185 165
4.056462e-001 -1.472061e-001 -6.387954e+000 161 145 128
2.465495e-001 -8.163618e-002 -6.331361e+000 7 4 5
3.521859e-001 1.794257e-002 -6.368874e+000 152 136 110
2.379636e-001 1.794982e-001 -6.282119e+000 85 73 51
3.442012e-001 3.184440e-001 -6.294981e+000 168 154 128
-1.792572e+000 4.001965e-001 -9.072653e+000 198 204 227
3.077898e-001 6.151714e-001 -6.246381e+000 179 165 136
-1.812077e+000 4.556921e-001 -9.060364e+000 86 69 16
3.057444e-001 7.604468e-001 -6.216222e+000 187 176 144
-1.316775e+000 1.149197e+000 -8.690007e+000 176 132 65
4.829308e-001 1.109681e+000 -6.341463e+000 21 14 6
4.173247e-001 1.081122e+000 -5.975822e+000 108 82 49
4.776662e-001 1.106155e+000 -6.018665e+000 138 116 92
1.452709e-001 1.336098e+000 -5.711723e+000 230 198 151
5.961175e-001 1.507392e+000 -6.162698e+000 95 81 70
7.174209e-001 1.468805e+000 -5.812536e+000 56 46 36
3.231237e-001 -1.674637e-001 -6.425911e+000 17 12 8
3.053013e-001 -1.589895e-001 -6.397062e+000 15 11 8
3.526331e-001 5.392788e-001 -6.254233e+000 45 36 29
2.847592e-001 5.942933e-001 -6.238170e+000 119 105 79
2.847592e-001 5.942933e-001 -6.238170e+000 119 105 79
-1.819384e+000 4.103350e-001 -9.059602e+000 97 81 35
2.970585e-001 7.519177e-001 -6.212313e+000 75 62 38
2.878107e-001 8.034425e-001 -6.189934e+000 77 64 47
3.016371e-001 9.231712e-001 -6.179693e+000 13 10 1
4.382514e-001 2.288230e+000 -1.361776e+001 135 111 79
3.074101e-001 1.048339e+000 -5.929097e+000 253 238 205
3.893220e-001 1.058468e+000 -5.948374e+000 137 104 70
2.101285e-001 1.059762e+000 -5.951658e+000 165 132 91
4.666644e-001 1.134039e+000 -6.001798e+000 233 204 169
1.323664e+000 2.707654e+000 -1.312970e+001 138 107 56
4.762376e-001 1.169838e+000 -5.998185e+000 149 124 94
5.919325e-001 1.411091e+000 -6.183164e+000 118 98 74
5.995036e-001 1.419189e+000 -6.185017e+000 249 215 167
5.910944e-001 1.423394e+000 -6.180861e+000 113 96 71
5.981842e-001 1.436671e+000 -6.187636e+000 239 210 162
5.918377e-001 1.438910e+000 -6.174793e+000 111 95 71
6.869631e-001 1.517148e+000 -6.189332e+000 118 100 80
5.273577e-001 1.432477e+000 -5.647209e+000 88 75 60
3.044015e-001 -1.180755e-001 -6.402045e+000 86 75 55
3.774066e-001 -3.290473e-003 -6.354614e+000 135 127 108
2.539121e-001 3.985980e-002 -6.331867e+000 62 49 32
2.949997e-001 7.031207e-002 -6.354095e+000 124 112 90
3.093911e-001 1.165881e-001 -6.359664e+000 172 156 128
2.304186e-001 4.130152e-001 -6.226882e+000 80 67 47
2.508097e-001 4.498664e-001 -6.236058e+000 118 110 90
-1.778338e+000 4.193692e-001 -9.094931e+000 100 86 32
2.811429e-001 7.722026e-001 -6.204292e+000 59 51 38
3.070623e-001 8.039126e-001 -6.203718e+000 170 155 126
-1.142594e+000 9.925363e-001 -8.624833e+000 48 26 2
-1.932727e+000 1.206168e+000 -8.625398e+000 220 188 137
-1.932727e+000 1.206168e+000 -8.625398e+000 220 188 137
3.065217e-001 9.934049e-001 -5.935355e+000 228 211 168
1.206157e+000 2.612587e+000 -1.330683e+001 55 25 2
1.268878e+000 2.634468e+000 -1.329683e+001 66 31 5
1.300601e+000 2.699413e+000 -1.321049e+001 64 43 4
4.687214e-001 1.165280e+000 -5.998866e+000 225 193 155
5.996463e-001 1.352758e+000 -6.198158e+000 238 213 171
4.819959e-001 1.301073e+000 -5.734483e+000 205 173 134
3.050930e-001 -1.797693e-001 -6.419245e+000 66 58 46
3.026592e-001 -9.145850e-002 -6.396044e+000 65 54 30
2.931150e-001 1.232985e-001 -6.336186e+000 37 24 8
3.013547e-001 4.634824e-001 -6.278105e+000 95 79 54
2.738479e-001 4.873170e-001 -6.252059e+000 80 68 42
-1.769605e+000 4.407159e-001 -9.091183e+000 203 177 116
1.863207e-001 6.385842e-001 -6.143402e+000 66 55 37
1.748235e-001 6.612993e-001 -6.127753e+000 125 109 86
1.748235e-001 6.612993e-001 -6.127753e+000 125 109 86
1.569128e-001 7.651471e-001 -6.092048e+000 77 60 42
-1.239917e+000 8.889901e-001 -8.717255e+000 173 151 91
-1.142433e+000 9.745442e-001 -8.644694e+000 120 101 49
-1.249102e+000 9.871532e-001 -8.686746e+000 184 143 87
-1.336979e+000 9.999101e-001 -8.730652e+000 207 168 116
-1.336979e+000 9.999101e-001 -8.730652e+000 207 168 116
-1.528314e+000 1.025633e+000 -8.695474e+000 205 175 103
-1.933086e+000 1.188663e+000 -8.630320e+000 52 25 0
2.945265e-001 9.612580e-001 -5.934870e+000 199 175 146
3.048075e-001 9.984572e-001 -5.925187e+000 90 68 38
3.909208e-001 1.077603e+000 -5.961128e+000 117 82 54
1.322619e+000 2.590335e+000 -1.309620e+001 79 57 11
-2.808709e+000 2.462645e+000 -1.038928e+001 28 15 6
8.721172e-001 2.654830e+000 -1.109053e+001 213 193 158
-2.091156e+000 2.327759e+000 -9.822064e+000 237 204 171
-2.308156e+000 2.510815e+000 -1.046368e+001 36 19 6
-5.799984e-001 1.599822e+000 -6.449277e+000 185 186 169
8.875613e-001 1.636790e+000 -6.551082e+000 207 200 179
2.745787e-001 -4.155866e-002 -6.368166e+000 114 102 86
3.050101e-001 1.179075e-002 -6.376917e+000 77 71 45
2.615410e-001 5.358081e-002 -6.336747e+000 123 115 94
1.409144e-001 1.867989e-001 -6.210545e+000 176 162 141
3.074165e-001 5.179271e-001 -6.263863e+000 164 149 120
2.581265e-001 5.653689e-001 -6.218817e+000 69 57 33
2.600859e-001 5.840269e-001 -6.215109e+000 81 67 42
-1.621209e+000 3.694090e-001 -9.285166e+000 89 95 85
1.933704e-001 6.598905e-001 -6.143790e+000 82 69 52
1.643007e-001 7.200290e-001 -6.104012e+000 121 105 89
1.834067e-001 7.322959e-001 -6.122586e+000 66 53 34
1.627244e-001 7.642165e-001 -6.097377e+000 120 104 85
-8.399701e-002 9.932988e-001 -1.017350e+001 42 32 23
3.736959e-001 9.865416e-001 -6.139776e+000 152 137 118
3.686662e-001 1.003769e+000 -5.929611e+000 93 75 53
2.652207e-002 1.059626e+000 -6.261890e+000 81 61 32
1.368528e+000 2.726125e+000 -1.311882e+001 120 102 75
4.847580e-001 1.186911e+000 -5.765094e+000 87 62 32
-2.969718e+000 2.519144e+000 -1.032816e+001 41 21 0
7.514155e-001 1.683148e+000 -6.745310e+000 108 110 117
6.838700e-001 1.459032e+000 -5.770236e+000 64 48 32
5.057938e-001 1.428620e+000 -5.630062e+000 118 108 90
3.248345e-001 1.417857e+000 -5.580371e+000 115 103 81
5.624749e-001 1.451343e+000 -5.662679e+000 92 79 60
2.764427e-001 -1.008750e-001 -6.370516e+000 114 108 94
2.647298e-001 -9.672092e-002 -6.363814e+000 53 48 29
2.025754e-001 -8.296290e-002 -6.306754e+000 74 66 45
3.005138e-001 -1.016037e-001 -6.396473e+000 122 113 90
2.593958e-001 1.048198e-001 -6.311416e+000 52 43 33
2.689676e-001 1.220270e-001 -6.322562e+000 121 109 87
2.434588e-001 2.748609e-001 -6.267656e+000 127 112 89
2.851425e-001 5.896388e-001 -6.235497e+000 126 111 90
3.002613e-001 6.822583e-001 -6.229134e+000 69 57 35
3.035726e-001 6.852843e-001 -6.229497e+000 173 159 133
3.041688e-001 7.555400e-001 -6.214305e+000 175 164 134
4.609933e-001 7.743194e-001 -6.153297e+000 168 152 127
1.516488e-001 7.693760e-001 -6.086418e+000 123 108 87
3.421401e-002 1.038314e+000 -6.264060e+000 61 43 19
4.769939e-001 1.078114e+000 -6.289938e+000 162 149 126
1.335380e+000 2.682659e+000 -1.309067e+001 82 54 13
-2.098811e+000 2.258082e+000 -9.850574e+000 170 146 131
4.044089e-001 1.174621e+000 -5.725755e+000 253 226 194
4.318037e-001 1.179598e+000 -5.735605e+000 101 77 42
4.318037e-001 1.179598e+000 -5.735605e+000 101 77 42
-2.841140e+000 2.466109e+000 -1.037011e+001 35 5 0
7.020875e-001 1.466032e+000 -5.794788e+000 144 135 118
2.239340e-001 1.424512e+000 -5.595552e+000 205 191 162
3.821894e-001 7.789697e-002 -6.342934e+000 130 115 86
3.917431e-001 -1.460738e-001 -6.387745e+000 26 16 5
2.938126e-001 1.032484e+000 -5.984098e+000 194 173 144
3.874302e-001 8.700626e-002 -6.335219e+000 117 112 87
-6.662210e-002 1.374387e+000 -5.891177e+000 184 152 101
4.161010e-002 1.438884e+000 -5.751107e+000 191 158 105
-1.105705e-001 1.468805e+000 -5.784960e+000 163 157 135
-1.103696e-001 1.468851e+000 -5.785183e+000 163 157 135
-2.304678e-002 1.447996e+000 -5.693475e+000 158 143 119
1.283101e-001 2.066954e-001 -6.226087e+000 59 44 25
2.944065e-001 1.223595e+000 -5.901326e+000 214 182 141
7.681036e-002 1.441155e+000 -5.627183e+000 69 58 40
3.757447e-001 -6.258291e-003 -6.364879e+000 122 111 86
-8.203664e+000 5.612810e+000 -2.775426e+001 10 25 31
2.453065e-001 3.636478e-001 -6.252313e+000 57 49 28
1.430644e+001 -3.999236e+000 -1.836729e+001 132 128 125
1.422457e+001 -3.148248e+000 -1.794895e+001 177 161 131
1.440078e+001 -2.942081e+000 -1.825395e+001 88 74 58
1.452864e+001 -2.115980e+000 -1.785080e+001 255 241 189
1.469661e+001 -4.125591e+000 -1.833251e+001 250 232 157
1.473901e+001 -3.774959e+000 -1.843704e+001 239 226 192
1.475736e+001 -3.463112e+000 -1.748078e+001 185 147 100
1.397057e+001 -3.921339e+000 -1.841346e+001 254 239 158
1.464565e+001 -1.758657e+000 -1.782977e+001 240 223 153
1.416542e+001 -3.899208e+000 -1.948178e+001 74 55 49
1.441975e+001 -2.242132e+000 -1.796373e+001 142 127 99
1.457002e+001 -2.415433e+000 -1.780475e+001 106 75 49
1.433163e+001 -1.748564e+000 -1.774850e+001 132 122 87
2.192678e-001 9.131468e-001 -6.176468e+000 25 24 21
1.476735e+001 -4.151358e+000 -1.784198e+001 62 45 29
1.476625e+001 -3.995021e+000 -1.831897e+001 92 61 40
1.472924e+001 -3.927278e+000 -1.817755e+001 240 204 150
1.468432e+001 -3.692158e+000 -1.703651e+001 66 47 43
1.458273e+001 -3.526595e+000 -1.695221e+001 110 66 53
1.422917e+001 -3.279540e+000 -1.821209e+001 244 232 206
1.488031e+001 -3.315682e+000 -1.805322e+001 67 45 36
1.478365e+001 -3.290591e+000 -1.797313e+001 67 45 36
1.405730e+001 -3.080401e+000 -1.808793e+001 255 246 213
1.494607e+001 -2.940584e+000 -1.812934e+001 202 172 119
1.471165e+001 -2.520805e+000 -1.745363e+001 66 38 17
2.255722e-001 8.970361e-001 -6.179360e+000 25 26 20
-1.324544e-001 1.462671e+000 -5.823408e+000 189 173 147
1.407984e+001 -4.296224e+000 -1.943493e+001 87 76 72
1.479745e+001 -4.017437e+000 -1.748208e+001 117 107 87
1.476132e+001 -4.058646e+000 -1.827349e+001 251 232 167
1.486549e+001 -4.091655e+000 -1.836216e+001 251 232 167
1.453040e+001 -3.839693e+000 -1.705444e+001 105 89 72
1.475430e+001 -3.953552e+000 -1.778784e+001 64 50 32
1.471691e+001 -3.855240e+000 -1.702345e+001 82 54 32
1.469758e+001 -3.550808e+000 -1.817604e+001 91 62 35
1.475871e+001 -3.325439e+000 -1.693356e+001 80 53 28
1.464808e+001 -2.026474e+000 -1.675375e+001 67 51 35
1.456050e+001 -1.748418e+000 -1.655752e+001 253 238 212
1.497786e+001 -1.733640e+000 -1.777798e+001 63 45 38
1.499265e+001 -1.501836e+000 -1.785133e+001 223 213 198
1.817637e-001 1.062402e+000 -5.965124e+000 162 133 93
1.975260e-001 1.281335e+000 -5.920569e+000 43 14 1
-9.747171e-003 1.440526e+000 -5.685347e+000 162 148 119
1.458130e+001 -4.502042e+000 -1.934404e+001 81 63 55
1.453969e+001 -4.211075e+000 -1.716581e+001 205 192 146
1.455188e+001 -4.132513e+000 -1.715627e+001 210 197 152
1.443696e+001 -3.870875e+000 -2.014058e+001 120 106 102
1.443696e+001 -3.870875e+000 -2.014058e+001 120 106 102
1.446242e+001 -3.741089e+000 -1.990684e+001 126 102 91
1.434677e+001 -3.241377e+000 -1.805263e+001 166 151 124
1.434677e+001 -3.241377e+000 -1.805263e+001 166 151 124
1.485184e+001 -2.425261e+000 -2.001739e+001 121 108 99
1.399140e+001 -2.037360e+000 -1.791840e+001 159 136 89
1.453700e+001 -1.834443e+000 -1.768988e+001 100 64 32
2.928829e-001 1.022587e+000 -5.977285e+000 40 24 7
1.974776e-001 1.421202e+000 -6.428685e+000 227 194 151
3.823560e-004 1.312184e+000 -5.815156e+000 253 231 184
1.502723e+001 -4.247520e+000 -1.844460e+001 180 133 89
1.491048e+001 -3.500004e+000 -1.809099e+001 43 23 7
1.496441e+001 -1.580571e+000 -1.775439e+001 103 77 44
7.499583e-002 1.194440e+000 -6.111073e+000 177 145 104
3.037702e-001 1.173123e+000 -5.719438e+000 223 193 157
-1.860039e-001 1.508828e+000 -5.934321e+000 92 78 51
1.461332e+001 -3.517858e+000 -1.991891e+001 66 50 37
1.495484e+001 -3.036787e+000 -1.801784e+001 50 18 1
1.454201e+001 -2.899461e+000 -1.793259e+001 65 32 2
1.464578e+001 -1.882557e+000 -1.972939e+001 127 109 87
2.084058e-001 9.264279e-001 -6.172851e+000 110 106 94
-9.809813e-002 1.406960e+000 -5.953094e+000 198 166 115
-1.268414e-001 1.504273e+000 -6.032323e+000 165 132 91
-7.819339e-002 1.460394e+000 -5.746862e+000 189 177 151
3.138645e-001 1.010898e+000 -5.926536e+000 111 85 58
6.260577e-001 1.463863e+000 -6.179173e+000 247 215 162
2.395661e-001 -7.257850e-002 -6.347582e+000 80 73 55
-1.180252e+000 3.150151e-001 -1.002712e+001 189 197 219
5.079351e-001 1.423612e+000 -5.636248e+000 207 189 165
3.240560e-001 1.425912e+000 -5.580473e+000 169 161 142
2.602227e-001 6.981613e-002 -6.333200e+000 123 115 95
2.659782e-001 4.656472e-001 -6.247050e+000 66 58 38
6.089108e-001 1.212647e+000 -6.237777e+000 163 147 131
4.469536e-001 1.223439e+000 -5.961886e+000 201 163 120
5.848396e-001 1.441581e+000 -5.684871e+000 103 88 70
3.983370e-001 1.421607e+000 -5.595522e+000 111 98 82
3.042513e-001 7.950632e-001 -6.208485e+000 159 148 120
3.407219e-001 1.053401e+000 -5.930335e+000 165 130 95
5.294749e-001 1.336876e+000 -5.758274e+000 195 162 121
2.535229e-001 4.426372e-002 -6.331974e+000 75 59 43
2.983517e-001 9.704563e-002 -6.359484e+000 80 68 44
3.445624e-001 6.124166e-001 -6.234285e+000 153 141 117
5.439712e-001 1.368921e+000 -5.760040e+000 252 223 183
5.439712e-001 1.368921e+000 -5.760040e+000 252 223 183
3.072607e-001 5.042131e-001 -6.271847e+000 175 160 131
1.534977e-001 7.526678e-001 -6.093788e+000 76 61 42
1.534977e-001 7.526678e-001 -6.093788e+000 76 61 42
2.940653e-001 8.951777e-001 -6.181579e+000 46 43 24
1.910284e-001 1.355753e+000 -9.796985e+000 193 168 104
3.702431e-001 9.590887e-001 -5.943496e+000 195 179 155
6.111147e-001 1.448126e+000 -6.183485e+000 254 222 175
4.532007e-001 1.424074e+000 -5.610493e+000 197 182 162
4.564656e-001 1.428070e+000 -5.611571e+000 111 100 79
3.806339e-001 1.435170e+000 -5.584066e+000 115 101 75
3.021000e-001 5.162389e-001 -6.267430e+000 98 82 56
2.739684e-001 6.611920e-001 -6.212988e+000 76 67 43
1.612627e-001 7.441399e-001 -6.099348e+000 130 115 96
4.981984e-001 1.176238e+000 -6.027489e+000 100 75 55
5.259993e-001 1.416148e+000 -5.736773e+000 254 226 188
4.109750e-001 1.421124e+000 -5.594761e+000 105 93 79
8.804338e-001 1.392018e+000 -5.504902e+000 109 94 71
1.395982e+001 -2.837039e+000 -1.816576e+001 251 239 160
1.415644e+001 -3.657661e+000 -1.824054e+001 246 231 199
2.855026e+000 1.527861e+000 -8.601510e+000 132 102 41
1.437840e+001 -3.803503e+000 -1.821035e+001 134 118 102
1.467782e+001 -3.874166e+000 -2.041064e+001 130 114 92
1.454680e+001 -2.879886e+000 -1.993505e+001 237 216 195
1.439088e+001 -5.699551e-001 -1.922430e+001 59 44 29
1.443256e+001 -5.741959e-001 -1.926511e+001 59 44 29
1.450834e+001 -3.321470e+000 -1.993731e+001 60 43 35
1.447703e+001 -1.254329e+000 -1.946364e+001 74 62 47
2.891853e+000 1.466525e+000 -8.609943e+000 130 108 60
1.436659e+001 -3.283793e+000 -1.981991e+001 69 55 45
4.795759e-001 4.756772e-001 -6.237398e+000 116 110 90
1.442572e+001 -3.635792e+000 -1.821918e+001 247 236 204
1.448719e+001 -3.407062e+000 -1.987035e+001 158 147 141
-2.030526e-002 1.452500e+000 -5.803074e+000 241 210 164
-7.547034e-002 1.456120e+000 -5.960868e+000 226 198 150
1.366655e-001 1.252663e+000 -5.734221e+000 255 251 208
1.909309e-001 1.309671e+000 -5.929492e+000 251 221 161
2.555819e-001 -4.411804e-002 -6.551112e+000 74 69 47
2.021549e-001 1.317378e+000 -5.905494e+000 127 97 59
2.446012e-001 5.100447e-001 -6.388186e+000 71 58 41
2.721290e-001 1.727530e-001 -6.561745e+000 13 9 5
3.032812e-001 1.032057e+000 -5.972188e+000 90 67 49
4.446719e+000 2.331123e+000 -1.189979e+001 22 16 10
4.446719e+000 2.331123e+000 -1.189979e+001 22 16 10
2.657925e-001 -1.185920e-001 -6.542237e+000 8 5 0
2.580263e-001 4.191112e-001 -6.409927e+000 86 68 54
2.568386e-001 4.517259e-001 -6.425720e+000 68 62 50
1.016224e-001 1.084635e+000 -6.208759e+000 68 51 32
7.657792e-002 1.155727e+000 -6.198561e+000 168 146 115
-8.138568e-002 1.385984e+000 -5.913617e+000 247 219 170
9.367890e-002 1.082757e+000 -6.217142e+000 237 217 164
1.085402e+000 1.053847e+000 -5.999502e+000 243 233 199
5.803978e-002 1.116766e+000 -6.215943e+000 101 76 47
4.575156e+000 2.309899e+000 -1.192315e+001 27 12 1
4.296410e+000 2.382979e+000 -1.176957e+001 37 22 1
3.219845e+000 2.459158e+000 -1.015059e+001 55 34 13
2.901248e-001 1.260125e+000 -5.904226e+000 255 232 176
4.031063e-001 -1.535386e-002 -6.364828e+000 137 128 98
4.433293e+000 2.276415e+000 -1.195868e+001 139 108 71
3.237215e+000 2.435597e+000 -1.038335e+001 63 43 18
-1.386202e-001 1.469164e+000 -5.825665e+000 102 87 61
3.114285e-001 3.260978e-002 -6.544119e+000 155 165 185
3.114285e-001 3.260978e-002 -6.544119e+000 155 165 185
2.452824e-001 2.392015e-001 -6.586795e+000 156 173 194
2.915704e-001 1.006733e+000 -5.984211e+000 168 151 125
6.210770e-002 1.108221e+000 -6.247419e+000 22 4 0
2.130342e-001 1.057725e+000 -5.944119e+000 149 112 67
3.080061e-001 1.189393e+000 -5.752061e+000 215 186 146
3.209970e+000 2.442845e+000 -1.042504e+001 69 43 8
3.324287e+000 2.467236e+000 -1.023888e+001 135 119 84
3.390580e+000 2.470731e+000 -1.022274e+001 64 43 12
-1.528623e-001 1.468566e+000 -5.852861e+000 204 187 160
2.563611e-001 2.639349e-001 -6.528304e+000 23 15 5
2.964861e-001 9.795587e-001 -5.937413e+000 72 61 41
1.925229e-001 1.442409e+000 -6.419382e+000 226 201 158
-3.935008e-001 1.406915e+000 -5.610527e+000 204 188 154
1.350517e-001 9.407295e-002 -6.286693e+000 94 79 56
2.640039e-001 1.378802e-001 -6.474031e+000 123 115 108
2.525805e-001 5.294804e-001 -6.254451e+000 123 116 83
2.159423e-001 9.222306e-001 -6.170031e+000 126 115 98
7.184802e-002 1.100645e+000 -6.216180e+000 62 37 4
1.006639e-001 1.403756e+000 -6.226658e+000 223 198 168
1.162155e-002 1.303678e+000 -5.804084e+000 247 216 172
-6.238722e-002 1.465712e+000 -5.860799e+000 197 170 121
-5.503659e-003 1.432876e+000 -5.681536e+000 210 193 163
6.696530e-001 1.253009e+000 -6.243895e+000 245 237 197
7.457960e-001 1.309298e+000 -6.247886e+000 21 15 16
1.961768e-001 3.865688e-001 -6.236935e+000 182 205 236
2.025815e-001 5.159788e-001 -6.283705e+000 191 211 236
2.079464e-001 -1.823213e-001 -6.348383e+000 88 72 58
6.111873e-001 1.268229e+000 -6.218367e+000 153 137 117
4.615337e-001 1.422311e+000 -5.631331e+000 215 196 165
4.596731e-001 1.037752e-001 -6.311498e+000 129 118 98
2.602010e-001 1.419801e-001 -6.330984e+000 120 110 90
1.461679e-001 4.688358e-001 -6.196196e+000 44 34 25
2.914692e-001 5.770144e-001 -6.248522e+000 97 84 62
5.888619e-001 1.364595e+000 -6.191557e+000 113 100 84
5.270635e-001 1.350801e+000 -5.753762e+000 169 136 95
-8.300182e-002 6.697809e-001 -9.949888e+000 220 226 231
-8.300182e-002 6.697809e-001 -9.949888e+000 220 226 231
3.561182e-001 1.014893e+000 -5.934064e+000 90 72 48
4.844910e-001 1.131476e+000 -6.035815e+000 211 188 157
4.518063e-001 1.089271e-001 -6.324086e+000 137 129 113
2.518488e-001 4.717568e-001 -6.230279e+000 103 95 75
2.734926e-001 4.775558e-001 -6.247675e+000 119 106 87
3.373329e-001 8.316326e-001 -6.188500e+000 143 129 109
3.966546e-001 4.257025e-001 -6.256635e+000 163 152 124
2.122929e-001 4.673938e-001 -6.201744e+000 128 116 100
-5.847650e-001 2.632585e-001 -1.006392e+001 54 52 39
3.107814e-001 5.773794e-001 -6.253853e+000 184 169 140
1.883300e-001 6.021853e-001 -6.155536e+000 106 88 70
2.475173e-001 -2.252477e-001 -6.383984e+000 71 70 63
3.053441e-001 -4.389809e-002 -6.408827e+000 159 145 124
2.191457e-001 1.696798e-001 -6.286874e+000 111 103 84
2.706581e-001 1.763613e-001 -6.319257e+000 114 105 81
2.933303e-001 7.100904e-001 -6.217157e+000 94 82 58
-5.407192e-002 7.560418e-001 -9.863097e+000 73 67 33
-5.407192e-002 7.560418e-001 -9.863097e+000 73 67 33
2.803585e-001 7.940348e-001 -6.189088e+000 131 125 104
4.505949e-001 1.062969e+000 -6.088256e+000 29 20 11
3.766305e-001 1.056657e+000 -5.937076e+000 141 110 79
4.462736e-001 1.122045e+000 -5.986581e+000 201 166 124
-3.079335e+000 1.798122e+000 -9.280595e+000 17 8 2
-3.026001e+000 1.817436e+000 -9.194877e+000 90 75 42
-3.072921e+000 1.928938e+000 -9.215692e+000 24 16 4
2.781294e-001 1.422626e+000 -5.586067e+000 187 174 155
5.538035e-001 1.440544e+000 -5.664746e+000 99 92 76
4.473270e-001 -1.044400e-001 -6.375612e+000 169 158 138
3.008773e-001 8.856121e-002 -6.363474e+000 93 85 64
4.059506e-001 1.806412e-001 -6.326843e+000 157 147 126
3.591987e-001 5.516748e-001 -6.248913e+000 167 156 133
3.015647e-001 6.341397e-001 -6.244444e+000 190 172 148
3.060069e-001 7.120317e-001 -6.226468e+000 175 161 132
3.032725e-001 9.997564e-001 -5.928823e+000 89 71 45
3.651889e-001 1.027772e+000 -5.925540e+000 214 187 173
-3.110852e+000 1.849432e+000 -9.226703e+000 14 6 0
-3.113007e+000 1.854424e+000 -9.192300e+000 77 66 45
-3.113007e+000 1.854424e+000 -9.192300e+000 77 66 45
4.930745e-001 1.171293e+000 -6.028168e+000 176 152 121
6.221476e-001 1.222550e+000 -6.234136e+000 168 147 123
5.991798e-001 1.372848e+000 -6.196630e+000 229 199 153
-3.938727e-001 1.463297e+000 -5.878440e+000 133 132 127
6.934789e-001 1.460330e+000 -5.784411e+000 101 93 80
1.585876e-001 1.414996e+000 -5.593446e+000 131 117 94
2.186665e-001 1.418125e+000 -5.586606e+000 205 189 163
5.485996e-001 1.441263e+000 -5.656603e+000 143 135 122
2.570614e-001 -4.159164e-002 -6.356599e+000 67 56 42
2.524472e-001 5.526533e-002 -6.338374e+000 64 56 37
2.309157e-001 4.736319e-001 -6.213199e+000 120 107 91
2.924017e-001 5.083528e-001 -6.261070e+000 84 72 50
2.949352e-001 5.453773e-001 -6.254489e+000 83 68 49
-5.660555e-001 2.625756e-001 -1.005765e+001 59 63 60
1.240987e-002 8.000688e-001 -9.891821e+000 205 185 135
2.945854e-001 7.656342e-001 -6.205799e+000 88 80 57
3.312644e-001 7.806204e-001 -6.203009e+000 116 101 71
-3.484162e-002 9.737283e-001 -1.007038e+001 219 221 221
4.885074e-001 8.247933e-001 -6.144910e+000 28 23 20
-1.606824e+000 1.024907e+000 -8.370773e+000 241 190 142
-3.906236e+000 1.377863e+000 -1.004290e+001 252 251 210
3.737318e-001 1.019698e+000 -5.925686e+000 207 191 164
3.696779e-001 1.043986e+000 -5.961834e+000 238 221 202
-3.076533e+000 1.814141e+000 -9.276041e+000 26 17 1
-3.076533e+000 1.814141e+000 -9.276041e+000 26 17 1
-3.133134e+000 1.818113e+000 -9.209692e+000 41 30 6
-3.110689e+000 1.903153e+000 -9.218250e+000 86 75 52
4.696685e-001 1.209080e+000 -5.986676e+000 234 202 164
6.290775e-001 1.450615e+000 -5.717288e+000 125 112 93
5.189624e-001 1.433207e+000 -5.642385e+000 91 81 69
8.837028e-001 1.406970e+000 -5.570848e+000 149 134 105
2.560986e-001 -9.611310e-002 -6.371669e+000 110 106 94
2.627742e-001 -1.667532e-002 -6.363827e+000 73 65 46
2.916594e-001 4.772094e-002 -6.374329e+000 74 61 42
2.576061e-001 5.987646e-002 -6.340619e+000 129 121 102
2.152773e-001 6.223680e-002 -6.305822e+000 128 120 99
1.889650e-001 1.595459e-001 -6.266533e+000 61 51 35
2.997008e-001 7.672966e-001 -6.210430e+000 87 80 52
1.186797e-001 1.099007e+000 -9.768422e+000 104 96 65
-1.749119e+000 1.135977e+000 -8.325423e+000 64 37 0
3.643261e-001 9.572311e-001 -5.944729e+000 90 70 45
3.023900e-001 9.741597e-001 -5.934240e+000 241 223 183
3.669227e-001 9.981174e-001 -5.933674e+000 102 82 52
4.106407e-001 1.084977e+000 -5.968255e+000 249 224 183
-3.122293e+000 1.814421e+000 -9.256006e+000 42 28 3
-3.110731e+000 1.860681e+000 -9.221540e+000 19 10 1
-3.043442e+000 1.894245e+000 -9.204321e+000 100 87 63
9.306632e-001 1.644880e+000 -6.635309e+000 105 104 91
9.380637e-001 1.642060e+000 -6.627847e+000 222 218 200
3.407666e-001 1.415804e+000 -5.577252e+000 151 137 110
5.653391e-001 1.448555e+000 -5.671393e+000 144 137 119
2.578699e-001 -2.620872e-002 -6.365874e+000 104 98 80
2.541958e-001 1.270285e-001 -6.329735e+000 130 117 98
1.855044e-001 1.568420e-001 -6.264014e+000 132 120 108
2.680458e-001 1.597459e-001 -6.322552e+000 55 42 26
3.874725e-001 2.650174e-001 -6.303474e+000 150 136 123
2.415767e-001 3.634068e-001 -6.247303e+000 138 130 108
2.363575e-001 4.224990e-001 -6.232872e+000 139 131 110
2.889025e-001 5.885075e-001 -6.242281e+000 77 65 44
-4.521998e-001 4.180424e-001 -1.031692e+001 57 64 72
2.923535e-001 6.367531e-001 -6.239586e+000 81 66 45
1.713728e-001 6.741198e-001 -6.122466e+000 136 124 102
1.271222e-002 8.417405e-001 -9.951960e+000 39 44 35
1.665792e-001 7.470580e-001 -6.096598e+000 82 67 48
-3.034910e-002 9.559976e-001 -1.005045e+001 228 221 220
2.953797e-001 8.686545e-001 -6.189739e+000 48 38 26
2.981339e-001 9.663869e-001 -5.935253e+000 121 104 77
4.778702e-001 1.086425e+000 -6.284091e+000 30 13 0
3.442440e-001 1.034999e+000 -5.923927e+000 116 95 69
3.527314e-001 2.427793e+000 -1.011112e+001 210 191 159
5.953181e-001 1.351853e+000 -6.195148e+000 138 115 88
5.195655e-001 1.347111e+000 -5.746860e+000 191 158 117
1.513183e+001 -4.837533e+000 -1.595666e+001 77 58 42
1.481227e+001 -3.760877e+000 -1.730767e+001 122 124 111
1.555717e+001 -3.468869e+000 -1.551359e+001 243 223 194
1.523928e+001 -2.725978e+000 -1.558663e+001 117 120 114
1.457353e+001 -4.609504e+000 -1.609808e+001 255 241 188
1.457353e+001 -4.609504e+000 -1.609808e+001 255 241 188
1.661701e+001 -4.754930e+000 -1.538662e+001 251 230 180
1.461124e+001 -4.360382e+000 -1.618052e+001 121 130 125
1.665454e+001 -4.517025e+000 -1.549716e+001 137 120 102
1.527164e+001 -3.256243e+000 -1.564454e+001 125 128 118
1.469950e+001 -2.221008e+000 -1.577809e+001 137 135 125
1.463489e+001 -1.592428e+000 -1.783307e+001 255 245 192
1.445894e+001 -4.715164e+000 -1.637710e+001 252 240 167
1.568124e+001 -4.726430e+000 -1.625339e+001 251 237 205
1.465155e+001 -1.831938e+000 -1.703878e+001 189 145 99
1.636658e+001 -1.660048e+000 -1.506110e+001 111 109 96
1.492135e+001 -4.810430e+000 -1.630448e+001 255 234 161
1.445060e+001 -4.494919e+000 -1.707980e+001 165 127 91
1.455449e+001 -4.329601e+000 -1.863640e+001 255 242 209
1.441370e+001 -2.067522e+000 -1.797864e+001 253 240 207
1.535861e+001 -1.900787e+000 -1.535513e+001 254 237 204
1.560805e+001 -1.893680e+000 -1.529148e+001 247 230 194
1.502526e+001 -5.095828e+000 -1.621416e+001 236 219 193
1.583583e+001 -5.151523e+000 -1.590750e+001 249 233 209
1.635186e+001 -4.852163e+000 -1.569807e+001 135 123 114
1.554213e+001 -4.484426e+000 -1.594934e+001 123 116 99
1.569948e+001 -4.424749e+000 -1.561365e+001 131 119 105
1.459950e+001 -2.952347e+000 -1.591051e+001 254 245 216
1.562708e+001 -2.792829e+000 -1.541835e+001 208 172 147
1.556496e+001 -2.715287e+000 -1.556172e+001 131 120 98
1.640913e+001 -2.754666e+000 -1.528645e+001 124 115 94
1.561371e+001 -2.600828e+000 -1.557617e+001 127 116 96
1.458541e+001 -2.369681e+000 -1.661335e+001 98 73 47
1.428746e+001 -1.488721e+000 -1.774064e+001 251 242 213
1.473202e+001 -1.378209e+000 -1.771356e+001 101 66 39
1.637589e+001 -5.111220e+000 -1.578432e+001 75 74 66
1.594077e+001 -5.061867e+000 -1.642027e+001 245 233 201
1.681476e+001 -4.556832e+000 -1.531844e+001 251 227 170
1.688394e+001 -4.579518e+000 -1.535929e+001 251 227 170
1.562796e+001 -4.307540e+000 -1.594855e+001 128 120 102
1.441736e+001 -4.249537e+000 -1.821581e+001 248 234 195
1.476749e+001 -4.149834e+000 -1.784152e+001 62 45 29
1.549855e+001 -3.948399e+000 -1.578524e+001 112 95 77
1.456796e+001 -3.808228e+000 -2.029481e+001 133 102 81
1.645942e+001 -2.238282e+000 -1.520071e+001 112 104 81
1.438895e+001 -1.640197e+000 -1.775411e+001 139 128 99
1.481268e+001 -1.266474e+000 -1.726026e+001 62 35 18
1.642096e+001 -5.100573e+000 -1.591040e+001 68 60 57
1.456048e+001 -4.617086e+000 -1.635231e+001 152 125 95
1.585357e+001 -4.214066e+000 -1.562148e+001 253 249 232
2.048116e-001 2.932720e-001 -6.295582e+000 29 24 12
1.688589e+001 -3.436268e+000 -1.524156e+001 250 237 211
1.659540e+001 -3.279162e+000 -1.521184e+001 253 228 192
1.467860e+001 -3.002639e+000 -1.688476e+001 103 81 61
1.467860e+001 -3.002639e+000 -1.688476e+001 103 81 61
1.648566e+001 -3.106157e+000 -1.520889e+001 110 92 68
1.561770e+001 -2.548167e+000 -1.547281e+001 250 234 212
1.656005e+001 -1.850603e+000 -1.489019e+001 135 138 129
1.661656e+001 -1.632171e+000 -1.486686e+001 164 169 152
1.571453e+001 -5.086433e+000 -1.636473e+001 230 217 205
1.477110e+001 -4.332414e+000 -1.722997e+001 96 76 46
1.459295e+001 -4.377719e+000 -1.996816e+001 248 236 221
1.499391e+001 -3.881054e+000 -1.596099e+001 251 236 220
1.430483e+001 -3.435010e+000 -1.807131e+001 107 91 68
1.406153e+001 -3.129262e+000 -1.821586e+001 155 134 91
1.638760e+001 -2.812154e+000 -1.534943e+001 160 142 122
1.640639e+001 -2.754917e+000 -1.531284e+001 99 91 68
1.632505e+001 -2.687031e+000 -1.529020e+001 188 183 160
1.644307e+001 -2.227785e+000 -1.521242e+001 97 91 70
1.466768e+001 -1.782310e+000 -1.574457e+001 150 147 135
1.475690e+001 -8.803961e-001 -1.766224e+001 90 55 14
1.659026e+001 -1.117893e+000 -1.472238e+001 238 240 219
1.513481e+001 -4.911580e+000 -1.621650e+001 88 78 57
1.576633e+001 -5.053555e+000 -1.650597e+001 234 220 209
1.581374e+001 -5.017041e+000 -1.648913e+001 59 48 45
1.499967e+001 -4.639428e+000 -1.618119e+001 160 134 99
1.499967e+001 -4.639428e+000 -1.618119e+001 160 134 99
1.483397e+001 -3.700547e+000 -1.599923e+001 247 240 225
1.576158e+001 -3.469591e+000 -1.560058e+001 168 144 117
1.500084e+001 -3.358969e+000 -1.828339e+001 255 232 180
1.474260e+001 -2.149235e+000 -1.677787e+001 148 130 109
1.504052e+001 -4.968105e+000 -1.617400e+001 70 50 35
1.592059e+001 -5.086330e+000 -1.642933e+001 253 243 226
1.510360e+001 -4.511941e+000 -1.813536e+001 127 105 81
1.663593e+001 -4.052181e+000 -1.538334e+001 165 147 126
1.504116e+001 -1.669027e+000 -1.792057e+001 144 114 63
1.507543e+001 -7.370699e-001 -1.773776e+001 141 102 51
8.812714e-002 1.108780e+000 -6.092124e+000 229 201 162
1.437794e+001 -3.356123e+000 -1.814054e+001 75 62 46
1.445319e+001 -1.129416e+000 -1.945981e+001 72 59 40
1.511903e+001 -3.900357e+000 -1.534695e+001 219 199 163
1.595227e+001 -4.898038e+000 -1.570501e+001 73 64 60
1.518655e+001 -3.789795e+000 -1.583511e+001 127 136 133
1.462641e+001 -3.273528e+000 -1.594590e+001 144 147 139
1.472842e+001 -2.774962e+000 -1.591356e+001 133 138 132
1.544612e+001 -3.686991e+000 -1.573857e+001 147 144 127
1.544612e+001 -3.686991e+000 -1.573857e+001 147 144 127
1.849838e+001 -2.731968e+000 -1.533335e+001 166 122 75
1.849838e+001 -2.731968e+000 -1.533335e+001 166 122 75
1.925418e+001 -5.374724e+000 -1.543849e+001 255 251 173
1.843323e+001 -4.634764e+000 -1.541513e+001 249 226 199
1.488162e+001 -2.381868e+000 -1.550902e+001 248 243 213
1.848965e+001 -3.055030e+000 -1.509811e+001 253 243 213
1.513616e+001 -5.134262e+000 -1.628586e+001 252 237 210
1.843292e+001 -4.881258e+000 -1.564061e+001 166 167 190
1.642556e+001 -3.822705e+000 -1.531754e+001 83 66 53
1.559398e+001 -3.011916e+000 -1.572701e+001 253 250 218
1.840491e+001 -3.097406e+000 -1.520684e+001 107 90 70
1.563000e+001 -2.425279e+000 -1.541456e+001 251 239 205
1.666770e+001 -1.624232e+000 -1.476994e+001 141 137 128
5.685318e-002 1.098782e+000 -6.126920e+000 107 78 48
1.632626e+001 -3.697642e+000 -1.544241e+001 146 135 115
1.635782e+001 -3.579149e+000 -1.548982e+001 254 249 217
1.656451e+001 -3.070056e+000 -1.515481e+001 255 252 231
1.549706e+001 -2.577443e+000 -1.550739e+001 139 126 107
1.546209e+001 -2.143066e+000 -1.539755e+001 108 90 77
1.625131e+001 -1.556569e+000 -1.493840e+001 145 134 112
1.644200e+001 -1.060149e+000 -1.473097e+001 101 93 74
-1.505512e-001 1.474382e+000 -5.850393e+000 110 99 77
1.507866e+001 -4.940690e+000 -1.623337e+001 254 243 221
1.568318e+001 -5.070793e+000 -1.625283e+001 79 68 65
1.603870e+001 -4.408799e+000 -1.574025e+001 253 246 236
1.678733e+001 -4.468546e+000 -1.541753e+001 249 248 237
1.451044e+001 -3.059827e+000 -1.596551e+001 155 124 100
1.447227e+001 -2.620734e+000 -1.585006e+001 128 108 77
1.454281e+001 -2.626550e+000 -1.575315e+001 138 138 130
1.475709e+001 -2.248253e+000 -1.670512e+001 83 55 30
1.651608e+001 -1.591194e+000 -1.488358e+001 112 96 78
1.658335e+001 -1.144532e+000 -1.473735e+001 224 218 199
1.652303e+001 -7.071508e-001 -1.462481e+001 144 146 131
1.829749e+001 -9.252126e-001 -1.365951e+001 119 91 61
1.645377e+001 -5.882153e-001 -1.456665e+001 167 161 146
1.506186e+001 -5.003865e+000 -1.624635e+001 253 246 223
1.550779e+001 -4.207507e+000 -1.591394e+001 231 224 205
1.854917e+001 -3.306181e+000 -1.565344e+001 67 48 35
1.446349e+001 -2.216735e+000 -1.667452e+001 101 83 65
1.855099e+001 -2.691413e+000 -1.507146e+001 195 187 153
1.660818e+001 -2.313095e+000 -1.500988e+001 218 210 200
1.871374e+001 -2.319034e+000 -1.377572e+001 60 41 24
1.871374e+001 -2.319034e+000 -1.377572e+001 60 41 24
1.885633e+001 -1.899807e+000 -1.373279e+001 232 213 173
1.867639e+001 -1.793430e+000 -1.368220e+001 143 130 95
1.885898e+001 -1.583980e+000 -1.366863e+001 229 200 163
1.865275e+001 -1.451518e+000 -1.364276e+001 199 173 143
1.857338e+001 -1.361178e+000 -1.350159e+001 91 71 38
7.064168e-002 1.127620e+000 -6.143259e+000 215 187 148
1.581272e+001 -5.012169e+000 -1.642783e+001 245 232 212
1.579351e+001 -5.008028e+000 -1.647594e+001 54 47 37
1.875722e+001 -5.232324e+000 -1.503220e+001 237 220 194
1.445294e+001 -3.331997e+000 -1.686435e+001 255 243 215
1.460495e+001 -1.794629e+000 -1.665232e+001 125 115 88
1.865268e+001 -1.915388e+000 -1.541881e+001 250 232 203
1.903628e+001 -8.512698e-001 -1.352026e+001 80 59 34
9.523592e-002 1.095521e+000 -6.215491e+000 186 162 124
1.587691e-001 1.082393e+000 -5.993956e+000 91 60 16
7.444687e-002 1.194956e+000 -6.111861e+000 177 145 103
-1.191693e-001 1.406803e+000 -6.012159e+000 203 181 140
9.311286e-002 1.426936e+000 -5.625865e+000 102 88 60
-1.166727e-001 1.458732e+000 -5.792845e+000 154 138 113
2.643721e-001 1.079114e-001 -6.460728e+000 77 68 61
1.574836e+001 -4.883930e+000 -1.619862e+001 251 239 224
1.456799e+001 -4.466239e+000 -1.634115e+001 83 60 15
1.683881e+001 -4.510936e+000 -1.545430e+001 248 246 240
1.488729e+001 -3.654495e+000 -1.594525e+001 255 239 194
1.862019e+001 -3.397492e+000 -1.570296e+001 49 24 4
1.864276e+001 -2.978568e+000 -1.560263e+001 255 230 191
1.873919e+001 -1.284400e+000 -1.530233e+001 63 29 4
1.855066e+001 -8.322411e-001 -1.514452e+001 253 232 207
6.961013e-001 1.081851e+000 -5.596124e+000 15 15 11
-1.259174e-001 1.469125e+000 -5.805598e+000 177 165 139
-1.324489e-001 1.486405e+000 -5.812256e+000 160 147 115
-1.306316e-001 1.475524e+000 -5.815203e+000 105 94 74
2.524268e-001 -7.437047e-002 -6.589492e+000 67 59 46
7.619634e-002 1.145431e+000 -6.154336e+000 220 188 147
2.564188e-001 1.143998e-001 -6.551590e+000 103 91 67
2.505807e-001 -1.639169e-001 -6.562380e+000 93 80 63
1.112298e-001 1.241570e+000 -5.750808e+000 117 95 71
2.064852e-001 1.438553e+000 -6.412344e+000 109 91 78
2.064852e-001 1.438553e+000 -6.412344e+000 109 91 78
4.407316e-001 1.873735e-001 -6.300614e+000 146 139 111
2.872794e+000 1.170135e+000 -8.665013e+000 43 19 4
2.872794e+000 1.170135e+000 -8.665013e+000 43 19 4
4.397802e+000 8.302467e-001 -6.496065e+000 78 44 20
4.397802e+000 8.302467e-001 -6.496065e+000 78 44 20
2.556258e-001 1.063602e-001 -6.458473e+000 82 68 52
2.587140e-001 1.059686e-001 -6.460902e+000 82 68 52
4.227880e+000 4.462140e-001 -6.866066e+000 98 76 36
4.386967e+000 5.637153e-001 -6.445783e+000 77 46 18
3.049631e+000 1.463587e+000 -9.304429e+000 60 42 30
8.523389e-002 1.087177e+000 -6.223361e+000 86 68 47
2.630891e-002 1.311834e+000 -5.796742e+000 254 238 188
6.221579e-001 1.754868e+000 -7.049731e+000 114 100 87
-1.308358e-001 1.514798e+000 -6.082959e+000 170 142 105
-1.853627e-001 1.493475e+000 -5.929735e+000 96 85 60
2.589131e-001 -1.951047e-001 -6.502829e+000 76 69 56
2.635039e-001 -1.691641e-001 -6.506246e+000 111 99 75
4.000561e-001 1.963896e-001 -6.303778e+000 21 14 5
4.000561e-001 1.963896e-001 -6.303778e+000 21 14 5
2.823757e+000 1.202498e+000 -8.798060e+000 68 41 11
5.591285e-002 1.107541e+000 -6.214863e+000 232 199 164
2.781990e+000 1.522844e+000 -8.667399e+000 184 137 60
2.781990e+000 1.522844e+000 -8.667399e+000 184 137 60
4.114105e+000 2.291109e+000 -9.379000e+000 83 73 57
6.219025e-001 1.742379e+000 -7.057513e+000 176 166 144
-2.052141e-001 1.519036e+000 -6.057536e+000 94 88 72
-2.067281e-001 1.529398e+000 -6.062200e+000 106 102 91
2.524613e-001 -1.259258e-001 -6.540876e+000 87 81 64
3.618175e+000 -1.416362e+000 -6.240870e+000 50 48 50
4.433587e+000 -1.132465e+000 -6.400133e+000 26 19 26
2.416499e-002 1.035299e+000 -6.244345e+000 134 106 66
7.161646e-002 1.309735e+000 -6.129902e+000 211 174 132
2.949792e-001 1.259007e+000 -5.863164e+000 186 145 87
1.928301e-001 1.301223e+000 -5.921149e+000 253 221 164
8.252887e-002 1.370654e+000 -6.041569e+000 255 222 171
-1.912806e-001 1.546458e+000 -6.171279e+000 38 30 21
-8.390535e-002 1.449244e+000 -5.757021e+000 232 215 176
-5.161680e-002 1.443836e+000 -5.719892e+000 158 140 104
-1.957076e-001 1.505706e+000 -5.965224e+000 137 129 109
-9.369109e-002 1.469187e+000 -5.761263e+000 131 117 91
-2.832792e-001 1.355849e+000 -5.386909e+000 82 66 41
1.317182e-001 8.955504e-002 -6.283833e+000 131 121 88
4.113045e-001 1.858455e-001 -6.304471e+000 154 146 125
4.566001e+000 -5.889568e-001 -6.394749e+000 176 188 202
2.453848e-001 6.729623e-001 -6.373632e+000 93 84 76
1.089273e-001 7.461763e-001 -6.127883e+000 146 132 105
2.127035e-001 9.197909e-001 -6.172175e+000 46 37 29
9.856428e-002 1.060217e+000 -6.223065e+000 224 208 169
9.990937e-002 1.092385e+000 -6.202426e+000 207 185 147
1.065294e-001 1.093998e+000 -6.212912e+000 192 174 138
6.699720e-002 1.101618e+000 -6.242268e+000 200 180 155
2.816105e+000 1.537959e+000 -8.671224e+000 85 54 22
2.793940e+000 1.547817e+000 -8.640797e+000 162 131 90
7.377240e-002 1.130029e+000 -6.166759e+000 105 86 54
6.263393e-001 1.768860e+000 -7.033082e+000 190 176 148
-7.069346e-001 1.419990e+000 -5.679215e+000 102 104 99
2.511579e-001 -3.474116e-002 -6.542709e+000 104 96 74
3.144561e-001 4.319748e-001 -6.376115e+000 169 168 166
2.396089e-001 7.748633e-001 -6.430645e+000 114 99 78
3.018473e+000 1.424796e+000 -9.244063e+000 41 22 3
2.887958e+000 1.503933e+000 -8.609209e+000 163 139 88
6.923873e-002 1.142060e+000 -6.178968e+000 180 154 121
2.756187e+000 1.228066e+000 -6.110923e+000 19 18 14
3.178591e+000 2.006914e+000 -9.102392e+000 229 190 152
5.307890e+000 2.289289e+000 -9.896400e+000 62 55 30
6.507141e-001 1.722128e+000 -6.931546e+000 65 66 68
-1.011952e-001 1.390344e+000 -5.958917e+000 81 57 19
-1.341294e-001 1.507167e+000 -6.073653e+000 224 195 155
9.235625e-002 1.427071e+000 -5.625762e+000 124 109 78
-2.057072e-001 1.524123e+000 -6.078785e+000 77 66 46
-2.062409e-001 1.509053e+000 -6.027627e+000 87 73 47
-1.076781e-001 1.468772e+000 -5.779813e+000 128 120 97
2.512468e-001 9.588015e-002 -6.524653e+000 105 97 84
2.520845e-001 7.896530e-001 -6.402685e+000 99 86 70
2.442609e-001 8.136619e-001 -6.394317e+000 51 39 23
