ply
format ascii 1.0
element face 0
property list uchar int vertex_indices
element vertex 886
property float x
property float y
property float z
property uchar diffuse_red
property uchar diffuse_green
property uchar diffuse_blue
end_header
1.187330e+001 3.715120e+000 -3.650071e+001 243 253 253
2.162471e-001 1.296140e+000 -9.940658e+000 57 40 13
1.258772e+000 2.220716e+000 -1.620675e+001 53 44 14
1.258772e+000 2.220716e+000 -1.620675e+001 53 44 14
7.067636e-002 2.424066e+000 -1.022794e+001 23 19 13
2.463702e-001 1.363912e+000 -5.876679e+000 216 182 134
1.849990e-001 1.446233e+000 -5.791427e+000 200 176 149
2.171446e+001 -2.746663e+000 -3.687577e+001 253 244 211
2.187161e+001 -2.610249e+000 -3.782239e+001 192 154 115
2.187161e+001 -2.610249e+000 -3.782239e+001 192 154 115
3.749177e-001 6.191338e-001 -6.414387e+000 156 142 113
3.612605e+000 7.189512e-001 -1.405906e+001 253 113 118
3.612605e+000 7.189512e-001 -1.405906e+001 253 113 118
1.327781e+001 2.529106e+000 -3.647536e+001 195 179 166
1.510107e-001 1.132010e+000 -9.994608e+000 74 63 21
1.806781e+000 1.640987e+000 -1.600699e+001 73 61 52
3.994470e+000 1.733146e+000 -1.627133e+001 238 242 243
1.320680e+001 3.343630e+000 -3.553390e+001 234 239 234
1.421855e+001 3.450893e+000 -3.655834e+001 252 252 229
1.305926e+001 3.431091e+000 -3.623983e+001 249 250 252
2.605412e-001 1.342664e+000 -9.960142e+000 53 47 36
1.227069e+000 2.086259e+000 -1.631718e+001 126 110 69
1.310089e+000 2.167574e+000 -1.624391e+001 204 192 172
8.404689e+000 4.238937e+000 -3.074079e+001 140 106 53
3.762305e-001 1.114971e+000 -6.117367e+000 236 196 144
5.487872e-001 2.485435e+000 -1.043209e+001 163 129 86
3.695588e-001 1.247584e+000 -5.881419e+000 223 175 133
1.455561e-001 1.374442e+000 -5.919843e+000 203 169 123
1.906433e-001 1.370719e+000 -5.897494e+000 201 169 124
-4.716004e-002 1.502017e+000 -5.968369e+000 120 106 79
4.104537e-001 -1.221624e-001 -6.574946e+000 116 106 85
2.199198e+001 -2.362711e+000 -3.859719e+001 97 77 68
4.303499e-002 1.089892e+000 -1.030997e+001 50 42 19
1.398209e+001 3.360682e+000 -3.560831e+001 182 175 156
1.398209e+001 3.360682e+000 -3.560831e+001 182 175 156
1.398020e+001 3.595242e+000 -3.555303e+001 196 188 165
1.398020e+001 3.595242e+000 -3.555303e+001 196 188 165
1.133793e+000 2.091904e+000 -1.630629e+001 203 190 178
1.130691e+000 2.152095e+000 -1.626577e+001 131 115 75
1.130691e+000 2.152095e+000 -1.626577e+001 131 115 75
2.948744e+000 1.511693e+000 -8.772753e+000 49 29 16
4.391081e-001 1.090470e+000 -6.107351e+000 129 96 63
3.770600e-001 1.089985e+000 -6.097424e+000 129 92 50
1.481200e-002 2.325480e+000 -1.026804e+001 31 21 19
9.445869e-002 2.406289e+000 -1.026790e+001 186 173 152
9.445869e-002 2.406289e+000 -1.026790e+001 186 173 152
4.304160e-001 1.447411e+000 -5.762202e+000 131 115 90
2.688860e-001 1.460616e+000 -5.767543e+000 95 82 63
1.581113e-001 1.467776e+000 -5.798180e+000 101 89 63
4.407602e-001 4.456224e-002 -6.526548e+000 115 108 79
2.201927e+001 -1.746985e+000 -3.850437e+001 84 65 56
2.270923e-001 7.270214e-001 -6.274361e+000 66 51 30
1.403162e+001 1.094456e+000 -3.716732e+001 198 197 193
6.218164e-002 2.319713e+000 -1.027823e+001 184 167 149
6.551127e-002 2.361128e+000 -1.026348e+001 157 150 147
6.551127e-002 2.361128e+000 -1.026348e+001 157 150 147
3.482462e-001 1.444855e+000 -5.761987e+000 121 109 86
3.415976e-001 1.448045e+000 -5.760463e+000 157 144 125
2.194775e-001 1.449809e+000 -5.781813e+000 103 88 64
3.479769e-001 1.458738e+000 -5.758070e+000 97 84 66
4.329710e-001 -9.365676e-002 -6.563418e+000 16 9 4
4.253697e-001 7.274944e-002 -6.527246e+000 115 104 81
2.259672e-001 2.588492e-001 -6.377896e+000 115 102 85
4.816359e-001 5.232846e-001 -6.397944e+000 124 117 96
2.224030e+001 -2.934539e+000 -3.921024e+001 70 62 56
2.197518e+001 -1.985831e+000 -3.845363e+001 108 91 66
2.231733e+001 -1.876101e+000 -3.912974e+001 223 207 197
6.503379e-002 1.075295e+000 -1.030873e+001 114 111 94
6.503379e-002 1.075295e+000 -1.030873e+001 114 111 94
1.322511e+001 2.650474e+000 -3.602698e+001 240 234 207
1.851638e+000 1.699101e+000 -1.611751e+001 244 236 224
1.403448e+001 3.230522e+000 -3.593187e+001 253 242 215
1.139715e+001 3.635522e+000 -3.765562e+001 248 252 251
1.276793e+001 3.770953e+000 -3.643029e+001 204 212 217
2.448944e-001 1.387282e+000 -9.955409e+000 169 143 80
3.932746e-001 1.028473e+000 -6.106003e+000 230 206 162
2.422768e-001 1.061312e+000 -6.221390e+000 123 113 101
4.307372e-001 1.061188e+000 -6.089097e+000 181 163 141
2.606716e+000 2.115446e+000 -1.238390e+001 89 51 18
2.870309e+000 2.352049e+000 -1.198129e+001 188 123 55
3.610963e-001 1.252150e+000 -6.080455e+000 52 11 0
3.494863e-002 2.367526e+000 -1.026317e+001 142 133 126
3.371828e-001 1.002867e+000 -4.925397e+000 180 166 140
5.451498e-002 1.478377e+000 -5.971510e+000 197 164 119
-1.244457e-002 1.477037e+000 -5.930312e+000 234 213 182
4.049416e-001 1.447071e+000 -5.759577e+000 126 112 86
4.437305e-002 1.475257e+000 -5.870291e+000 116 98 74
4.418694e-002 1.474913e+000 -5.869946e+000 116 98 74
1.206133e-001 1.463006e+000 -5.817645e+000 156 143 126
3.258386e-001 5.531924e-001 -6.415142e+000 120 111 91
1.396042e+001 1.836296e+000 -3.350798e+001 196 192 186
6.800609e-003 1.067711e+000 -1.033985e+001 58 48 39
1.386354e+001 3.192930e+000 -3.539103e+001 240 229 202
3.007109e-001 9.248290e-001 -6.345931e+000 135 131 113
1.017388e+001 3.570404e+000 -3.827838e+001 249 250 250
1.353309e+001 3.421333e+000 -3.584629e+001 204 211 205
1.137239e+001 3.723209e+000 -3.767076e+001 200 205 208
1.314548e+001 3.750770e+000 -3.635809e+001 196 207 213
3.007609e+000 1.422961e+000 -1.051438e+001 51 34 9
2.882433e+000 1.297998e+000 -8.678636e+000 151 120 77
1.355132e+000 2.228499e+000 -1.619562e+001 136 118 94
1.284332e-001 1.119068e+000 -6.418995e+000 70 46 18
2.702209e+000 2.295664e+000 -1.196205e+001 245 190 134
3.637566e+000 2.213135e+000 -9.674196e+000 104 88 54
3.508480e-001 1.260284e+000 -6.082103e+000 255 228 175
2.411854e-001 1.261870e+000 -5.899873e+000 255 238 197
2.338098e-001 1.262285e+000 -5.901901e+000 255 228 193
-1.682747e-001 1.655469e+000 -6.610307e+000 114 98 73
3.825729e-001 1.445574e+000 -5.757780e+000 112 100 82
7.454554e-002 1.462028e+000 -5.847384e+000 117 97 72
3.898055e-001 1.448642e+000 -5.761065e+000 105 93 69
2.454576e-001 1.449127e+000 -5.774906e+000 103 90 69
2.455993e-001 1.449115e+000 -5.774974e+000 103 90 69
-2.018384e-001 1.367754e+000 -5.487604e+000 219 199 163
1.963752e-001 2.542329e-001 -6.390266e+000 68 50 28
2.212134e+001 -2.936096e+000 -3.710627e+001 176 160 133
2.180003e+001 -1.957372e+000 -3.710733e+001 251 233 182
3.767734e-001 6.156661e-001 -6.415007e+000 179 165 137
4.109896e-001 6.251509e-001 -6.398973e+000 158 143 117
4.143313e-001 6.504876e-001 -6.393915e+000 19 11 0
1.309660e+001 2.447683e+000 -3.665408e+001 208 207 187
1.262804e+001 2.490540e+000 -3.701028e+001 212 208 196
1.130123e+001 2.725231e+000 -3.806770e+001 204 190 167
1.210775e+001 2.787238e+000 -3.716740e+001 218 214 190
1.210775e+001 2.787238e+000 -3.716740e+001 218 214 190
-9.207246e-002 1.186032e+000 -9.547026e+000 192 185 161
1.302560e+001 3.339588e+000 -3.620672e+001 255 254 255
3.614520e-001 9.528981e-001 -6.343296e+000 91 81 69
3.706930e-001 9.553474e-001 -6.346744e+000 152 141 115
2.469063e-001 1.345703e+000 -1.000030e+001 54 45 41
1.191900e+001 4.298570e+000 -3.737093e+001 255 239 219
1.024241e+001 4.285477e+000 -3.046802e+001 248 230 180
7.297651e-002 1.464445e+000 -5.847402e+000 177 159 135
1.283222e-001 1.456695e+000 -5.814474e+000 191 176 153
2.871039e-001 1.449247e+000 -5.765999e+000 204 190 163
1.792269e-001 1.453069e+000 -5.792109e+000 128 111 83
4.317073e-001 -1.735599e-002 -6.542265e+000 7 6 1
1.435185e+001 -3.974559e+000 -1.854527e+001 132 128 125
-2.199065e-002 1.493274e+000 -5.937667e+000 117 110 84
1.373366e+001 -4.124632e+000 -1.840953e+001 249 238 158
1.416869e+001 -3.757264e+000 -1.969903e+001 91 64 44
1.429907e+001 -3.443323e+000 -1.843973e+001 80 70 57
1.448446e+001 -3.490709e+000 -1.861051e+001 80 70 57
1.448446e+001 -3.490709e+000 -1.861051e+001 80 70 57
1.395279e+001 -3.065033e+000 -1.803784e+001 229 221 191
1.402549e+001 -3.080728e+000 -1.810405e+001 229 221 191
1.419248e+001 -3.211799e+000 -1.960085e+001 93 70 55
1.583247e-001 1.323086e+000 -6.204611e+000 179 138 84
2.935202e-002 1.396036e+000 -6.023193e+000 192 164 117
2.935202e-002 1.396036e+000 -6.023193e+000 192 164 117
5.194146e-001 1.724284e-001 -6.480085e+000 14 12 8
1.407211e+001 -4.366811e+000 -1.941976e+001 255 241 215
1.420793e+001 -4.383608e+000 -1.979793e+001 135 130 129
1.400311e+001 -3.904747e+000 -1.859768e+001 254 239 158
3.642266e-001 1.080483e+000 -6.110479e+000 251 225 180
2.313286e+000 2.276319e+000 -1.217876e+001 237 197 135
2.304673e+000 2.392968e+000 -1.218360e+001 254 208 144
2.247843e+000 2.443069e+000 -1.220242e+001 69 38 18
2.247843e+000 2.443069e+000 -1.220242e+001 69 38 18
2.247843e+000 2.443069e+000 -1.220242e+001 69 38 18
2.238073e+000 2.667372e+000 -1.190160e+001 235 216 184
-1.462331e-003 1.485125e+000 -5.912703e+000 140 128 106
5.123671e-001 -5.761178e-002 -6.521840e+000 106 96 71
1.417021e+001 -2.691174e+000 -1.802377e+001 125 116 96
2.100842e+000 2.260017e+000 -1.237176e+001 248 189 121
3.469986e-002 1.408823e+000 -6.011423e+000 248 216 165
-7.592714e-002 1.502159e+000 -6.018340e+000 97 85 69
4.604093e-001 -1.677779e-002 -6.536098e+000 116 104 74
2.269469e+000 2.290772e+000 -1.246503e+001 33 8 7
2.078291e+000 2.338598e+000 -1.232427e+001 224 179 115
2.252559e+000 2.382776e+000 -1.226052e+001 229 192 127
2.255448e+000 2.429182e+000 -1.222067e+001 59 34 12
2.059569e+000 2.500223e+000 -1.221147e+001 25 9 5
2.120491e+000 2.573564e+000 -1.215817e+001 195 144 68
2.152892e+000 2.561055e+000 -1.207931e+001 204 164 102
2.186190e+000 2.620084e+000 -1.216701e+001 84 39 18
-6.798831e-003 1.476549e+000 -6.069337e+000 190 161 117
-6.798831e-003 1.476549e+000 -6.069337e+000 190 161 117
1.933684e-001 1.453446e+000 -5.789016e+000 108 100 79
-8.183073e-003 1.475977e+000 -5.921962e+000 216 200 165
1.429570e+001 -4.311221e+000 -1.841781e+001 167 158 151
1.417581e+001 -4.271366e+000 -1.830692e+001 167 158 151
1.427890e+001 -4.396052e+000 -1.942737e+001 101 94 79
1.436738e+001 -4.424434e+000 -1.951474e+001 101 94 79
1.446894e+001 -4.330663e+000 -2.019536e+001 246 226 202
1.425213e+001 -4.047864e+000 -1.832528e+001 133 118 95
1.435643e+001 -3.809617e+000 -2.003492e+001 68 46 44
1.410980e+001 -3.459690e+000 -1.809212e+001 146 130 107
1.410980e+001 -3.459690e+000 -1.809212e+001 146 130 107
1.416180e+001 -3.200525e+000 -1.813972e+001 243 229 202
1.391727e+001 -3.153393e+000 -1.819700e+001 133 115 93
1.391727e+001 -3.153393e+000 -1.819700e+001 133 115 93
2.036056e+000 2.293618e+000 -1.229813e+001 81 34 2
2.195372e+000 2.363760e+000 -1.234437e+001 156 92 30
2.195372e+000 2.363760e+000 -1.234437e+001 156 92 30
2.151165e+000 2.387537e+000 -1.232120e+001 238 205 147
2.426946e+000 2.413379e+000 -1.222948e+001 195 133 60
2.426946e+000 2.413379e+000 -1.222948e+001 195 133 60
1.959652e+000 2.418206e+000 -1.213471e+001 234 198 134
2.164755e+000 2.479163e+000 -1.216744e+001 98 52 8
1.487244e-001 1.219720e+000 -6.256622e+000 191 158 112
2.175439e+000 2.578889e+000 -1.204930e+001 101 64 38
2.300956e+000 2.612142e+000 -1.215551e+001 227 180 113
2.151751e+000 2.641371e+000 -1.215255e+001 191 145 87
2.138545e+000 2.669536e+000 -1.210488e+001 89 44 21
3.183639e-002 1.483894e+000 -5.997031e+000 197 166 119
-5.562848e-002 1.492474e+000 -5.981724e+000 106 90 65
3.233256e-002 1.472050e+000 -5.882274e+000 134 119 88
3.207198e-001 -3.708744e-003 -6.696512e+000 75 73 61
4.742760e-001 2.337320e-001 -6.466029e+000 136 129 103
1.447959e+001 -4.312331e+000 -1.961057e+001 126 113 101
1.434708e+001 -3.903963e+000 -2.010784e+001 236 222 199
1.441633e+001 -3.735623e+000 -1.991901e+001 61 39 34
1.395790e+001 -2.166845e+000 -1.796034e+001 248 239 208
1.427659e+001 -1.672293e+000 -1.812568e+001 251 251 225
1.432686e+001 -1.572587e+000 -1.936997e+001 55 41 35
1.399930e+001 -1.029247e+000 -1.783169e+001 148 127 94
2.255987e+000 2.265025e+000 -1.234585e+001 184 147 95
2.250457e+000 2.474310e+000 -1.223028e+001 36 10 7
2.362639e+000 2.485037e+000 -1.213488e+001 254 223 165
2.260429e+000 2.533595e+000 -1.216823e+001 104 55 12
2.260429e+000 2.533595e+000 -1.216823e+001 104 55 12
2.375812e+000 2.608489e+000 -1.207904e+001 185 137 69
1.689009e+000 2.524390e+000 -1.070079e+001 214 199 168
1.689009e+000 2.524390e+000 -1.070079e+001 214 199 168
3.371568e-002 1.389487e+000 -6.016549e+000 243 210 165
5.405427e-002 1.388467e+000 -5.991456e+000 171 137 93
1.392432e+001 -4.163321e+000 -1.846467e+001 149 121 81
2.320983e+000 2.250084e+000 -1.239251e+001 229 192 140
2.315413e+000 2.372470e+000 -1.224474e+001 227 184 111
2.061304e+000 2.377653e+000 -1.226004e+001 87 51 7
2.016480e+000 2.407335e+000 -1.221178e+001 117 67 11
2.143246e+000 2.418177e+000 -1.211124e+001 221 168 110
2.195284e+000 2.557819e+000 -1.209519e+001 223 189 144
2.195284e+000 2.557819e+000 -1.209519e+001 223 189 144
1.716674e+000 2.597445e+000 -1.221825e+001 246 232 202
2.266818e+000 2.689151e+000 -1.184326e+001 154 131 101
-1.384775e-002 1.485102e+000 -5.928371e+000 174 162 138
4.531151e-001 3.405486e-001 -6.452740e+000 91 82 71
1.426913e+001 -2.165840e+000 -1.976006e+001 123 98 74
5.244261e-001 7.749126e-001 -6.327226e+000 143 129 100
2.867898e+000 1.174006e+000 -1.038873e+001 72 68 52
2.055832e+000 2.278476e+000 -1.228814e+001 240 196 149
2.254882e+000 2.316950e+000 -1.232086e+001 212 166 108
2.153436e+000 2.345006e+000 -1.234866e+001 222 190 152
2.234066e+000 2.405974e+000 -1.234761e+001 247 199 137
2.250970e+000 2.564892e+000 -1.220264e+001 60 14 0
2.012934e+000 2.582457e+000 -1.214790e+001 248 208 137
2.267398e+000 2.597682e+000 -1.215179e+001 58 12 0
2.208193e+000 2.609137e+000 -1.208981e+001 248 199 146
1.704138e+000 2.640625e+000 -1.220526e+001 245 230 197
2.185949e+000 2.714115e+000 -1.192508e+001 237 193 133
3.776497e-001 1.250899e+000 -5.877505e+000 248 230 182
1.165850e-002 1.470981e+000 -5.901263e+000 190 169 138
-4.596051e-002 1.484003e+000 -5.958931e+000 146 130 104
1.431015e+001 -4.287793e+000 -2.015461e+001 63 52 40
3.733492e-001 5.463388e-001 -6.434254e+000 152 138 106
4.209256e-001 6.023660e-001 -6.401440e+000 94 83 53
2.241059e+000 2.502387e+000 -1.214545e+001 254 229 168
2.062691e+000 2.528382e+000 -1.221058e+001 233 195 153
2.271699e+000 2.584541e+000 -1.216889e+001 251 203 149
2.369614e+000 2.599580e+000 -1.211878e+001 255 213 138
1.457374e+000 2.691222e+000 -1.326756e+001 110 83 54
1.485296e+000 2.653722e+000 -1.328345e+001 32 23 1
1.315087e+000 2.721478e+000 -1.318694e+001 74 52 6
2.301094e+000 2.528702e+000 -1.220183e+001 250 220 150
6.809081e-001 1.275986e+000 -6.393463e+000 115 103 84
4.411692e-001 3.552915e-001 -6.004493e+000 159 179 197
-1.112359e+000 9.830494e-001 -8.773421e+000 188 153 87
6.927667e-001 1.279025e+000 -6.393539e+000 247 218 174
-2.663540e-001 1.594254e+000 -6.464472e+000 109 106 101
4.204824e-001 1.815014e-001 -6.729736e+000 139 131 108
3.782328e-001 7.877800e-001 -6.378425e+000 151 138 112
-1.136198e+000 9.646359e-001 -8.763086e+000 152 125 75
4.079270e-001 1.041796e+000 -6.109651e+000 231 215 177
3.829714e-001 1.445745e+000 -5.758015e+000 109 94 75
-7.392187e-003 1.379725e+000 -5.533618e+000 68 60 49
2.501180e-001 4.662045e-001 -6.347090e+000 115 98 81
3.031414e-001 4.671679e-001 -6.390978e+000 117 105 81
3.279468e-001 6.289687e-001 -6.382543e+000 102 90 66
3.375713e-001 7.903183e-001 -6.355020e+000 94 86 66
-1.369663e+000 1.729385e+000 -9.248638e+000 77 56 17
7.558577e-001 1.541803e+000 -6.355410e+000 215 193 151
3.732670e-001 1.462453e+000 -5.755417e+000 159 147 121
2.164901e+001 -2.732570e+000 -3.677623e+001 253 244 211
2.172976e+001 -1.866899e+000 -3.711545e+001 254 237 165
2.169627e+001 -1.864197e+000 -3.707898e+001 254 237 165
3.964816e-001 1.072929e+000 -6.102059e+000 56 35 22
2.198216e+001 -1.559635e+000 -3.703481e+001 255 241 214
1.282142e+000 2.104201e+000 -1.628881e+001 198 186 174
3.007872e+000 2.311227e+000 -1.201306e+001 247 199 137
3.994009e-001 2.072621e-001 -6.497269e+000 131 120 97
2.214125e+001 -3.024021e+000 -3.829738e+001 120 106 97
2.871700e+000 2.352424e+000 -1.198675e+001 188 123 55
2.810511e+000 2.359660e+000 -1.196957e+001 193 125 62
2.810511e+000 2.359660e+000 -1.196957e+001 193 125 62
4.000779e-001 1.452676e+000 -5.831436e+000 148 119 73
3.986954e-001 6.980224e-001 -6.387952e+000 95 79 54
1.443730e+001 2.380474e+000 -3.590022e+001 253 251 235
1.463187e-001 1.074777e+000 -6.391052e+000 198 175 150
4.130424e-001 1.040099e+000 -6.107184e+000 85 65 39
3.000789e+000 2.208804e+000 -1.217760e+001 253 215 169
1.598263e-001 1.454527e+000 -5.798473e+000 100 82 58
4.178943e-001 1.405142e-001 -6.503599e+000 133 120 95
3.964360e-001 8.129791e-001 -6.364564e+000 147 131 106
3.103787e+000 2.229555e+000 -1.197151e+001 255 192 127
2.993058e+000 2.261887e+000 -1.198338e+001 253 206 147
3.077917e+000 2.325348e+000 -1.191326e+001 164 104 42
5.329984e-001 1.207237e+000 -6.162830e+000 196 161 128
3.193776e-001 5.599880e-001 -6.628684e+000 72 59 40
1.760620e-001 1.353153e+000 -5.951141e+000 247 225 172
3.087390e-001 5.614950e-001 -6.617791e+000 67 54 35
5.055586e-001 -7.079119e-002 -6.529083e+000 111 99 71
4.315946e-001 -1.697888e-002 -6.542034e+000 7 6 1
3.014250e+000 2.475690e+000 -1.203504e+001 156 110 44
5.106608e-001 -1.798985e-002 -6.528854e+000 117 99 63
5.201806e-001 2.538328e-001 -6.449516e+000 130 122 86
1.495236e-001 1.121668e+000 -6.407433e+000 50 24 6
2.689921e+000 2.454016e+000 -1.207717e+001 217 165 98
2.689475e+000 2.595959e+000 -1.195700e+001 247 207 138
1.060104e-001 1.465158e+000 -5.828191e+000 82 68 55
3.163186e-001 2.276275e-001 -6.647808e+000 98 82 61
2.658103e+000 2.375199e+000 -1.211949e+001 2 4 1
2.873058e+000 2.557505e+000 -1.201148e+001 44 23 17
2.852555e+000 2.624340e+000 -1.202742e+001 242 202 138
3.009084e+000 2.631334e+000 -1.198716e+001 41 16 8
-5.493918e-002 1.523748e+000 -6.240098e+000 221 196 155
4.046380e+000 1.780442e+000 -1.285037e+001 110 89 72
4.046380e+000 1.780442e+000 -1.285037e+001 110 89 72
1.934209e-001 1.115724e+000 -6.364416e+000 53 43 23
2.888502e+000 2.601039e+000 -1.191337e+001 230 177 106
2.671684e+000 2.670942e+000 -1.188646e+001 213 159 87
3.176874e-001 -7.182081e-002 -6.706074e+000 90 83 56
2.640323e-001 3.570307e-001 -6.450628e+000 120 108 81
3.184473e-001 5.061830e-001 -6.557344e+000 91 79 60
2.963455e-001 9.172487e-001 -6.351133e+000 24 24 24
3.637139e-001 1.050710e+000 -6.141313e+000 167 148 115
1.624182e-001 1.115002e+000 -6.381200e+000 226 204 156
2.608149e+000 2.193581e+000 -1.213622e+001 168 103 43
1.511142e-001 1.146528e+000 -6.260060e+000 228 195 149
2.757894e+000 2.366878e+000 -1.215206e+001 62 27 14
2.757894e+000 2.366878e+000 -1.215206e+001 62 27 14
3.003395e+000 2.362174e+000 -1.208878e+001 213 152 93
2.605839e+000 2.621750e+000 -1.196821e+001 223 163 103
3.003487e+000 2.649651e+000 -1.198410e+001 22 6 3
3.003487e+000 2.649651e+000 -1.198410e+001 22 6 3
2.634444e+000 2.684858e+000 -1.204368e+001 57 24 5
5.172529e+000 1.994144e+000 -8.345440e+000 108 99 90
3.738503e-001 1.254309e+000 -5.899611e+000 180 138 95
4.448081e-001 -8.809380e-002 -6.539320e+000 27 22 12
5.109775e-001 -1.064090e-001 -6.534943e+000 89 91 75
3.209307e-001 -4.687521e-002 -6.685631e+000 87 80 68
3.209307e-001 -4.687521e-002 -6.685631e+000 87 80 68
4.932993e+000 8.593304e-001 -8.743190e+000 141 119 86
1.627113e-001 1.103104e+000 -6.384620e+000 209 186 152
1.703000e-001 1.117876e+000 -6.372965e+000 67 53 17
3.792195e-001 1.089789e+000 -6.096771e+000 140 105 67
1.458276e-001 1.146485e+000 -6.293356e+000 63 39 16
3.065480e+000 2.234780e+000 -1.215693e+001 214 158 91
3.042798e+000 2.408316e+000 -1.207512e+001 41 8 4
2.812390e+000 2.474093e+000 -1.203032e+001 22 6 4
2.609639e+000 2.482563e+000 -1.208181e+001 30 7 9
2.862636e+000 2.602882e+000 -1.208508e+001 202 155 79
2.570623e+000 2.576040e+000 -1.202580e+001 236 187 123
2.876339e+000 2.583469e+000 -1.197756e+001 33 6 5
2.632597e+000 2.588909e+000 -1.199526e+001 59 26 7
2.632597e+000 2.588909e+000 -1.199526e+001 59 26 7
2.738954e+000 2.687010e+000 -1.185396e+001 175 127 73
5.182472e+000 1.981343e+000 -8.315094e+000 15 11 13
2.828198e+000 2.512121e+000 -1.060719e+001 126 109 83
2.828198e+000 2.512121e+000 -1.060719e+001 126 109 83
2.494163e+000 2.527733e+000 -1.065583e+001 172 156 131
2.756505e-001 1.461450e+000 -6.589507e+000 109 86 60
6.629554e-002 1.381628e+000 -5.981214e+000 251 219 170
2.423726e-001 1.447862e+000 -5.774825e+000 98 88 63
-1.051203e-001 1.513914e+000 -6.081848e+000 107 95 68
-1.860974e-002 1.478098e+000 -5.938836e+000 204 188 152
-1.944204e-002 1.484145e+000 -5.937945e+000 121 111 83
3.161048e-001 -7.192261e-002 -6.693431e+000 75 69 50
5.229898e-001 1.714319e-001 -6.467435e+000 25 24 23
4.089334e-001 4.747088e-001 -6.427854e+000 133 122 92
3.009051e+000 2.309798e+000 -1.219764e+001 227 183 120
3.025400e+000 2.331481e+000 -1.212964e+001 76 31 6
2.618401e+000 2.437665e+000 -1.204423e+001 52 22 9
2.648209e+000 2.449834e+000 -1.196758e+001 255 211 150
2.946294e+000 2.482275e+000 -1.193192e+001 242 195 128
2.833438e+000 2.541244e+000 -1.204309e+001 19 5 0
2.523780e+000 2.578768e+000 -1.205158e+001 248 192 125
2.780866e+000 2.595672e+000 -1.200279e+001 89 41 19
2.562442e+000 2.686023e+000 -1.198431e+001 229 178 111
2.406686e+000 2.510560e+000 -1.058300e+001 219 203 177
2.428258e+000 2.530122e+000 -1.055205e+001 231 211 187
2.611075e-001 1.316018e+000 -6.094559e+000 252 218 170
1.713742e-001 1.472461e+000 -6.389599e+000 221 195 146
1.717396e-001 1.487064e+000 -6.389572e+000 205 181 135
4.763466e-002 1.384393e+000 -5.994854e+000 241 209 160
3.895621e-001 1.455271e+000 -5.758248e+000 171 161 134
2.818756e-001 1.448367e+000 -5.766925e+000 186 172 143
-1.218490e-001 1.538372e+000 -6.175374e+000 80 68 51
3.663610e-001 1.461516e+000 -5.758575e+000 106 99 73
3.230514e-001 1.968460e-001 -6.635345e+000 85 82 66
3.106255e-001 7.601149e-001 -6.551119e+000 95 86 69
4.048238e+000 1.848474e+000 -1.269487e+001 84 66 48
4.002546e+000 1.936489e+000 -1.286433e+001 64 49 40
3.015321e+000 2.215386e+000 -1.234234e+001 77 38 1
3.015321e+000 2.215386e+000 -1.234234e+001 77 38 1
3.012825e+000 2.363457e+000 -1.195945e+001 191 143 97
2.774908e+000 2.382294e+000 -1.204090e+001 193 131 57
2.970451e+000 2.451805e+000 -1.200424e+001 251 203 145
2.904014e+000 2.451076e+000 -1.189495e+001 164 112 51
2.904014e+000 2.451076e+000 -1.189495e+001 164 112 51
2.542610e+000 2.594142e+000 -1.203725e+001 178 119 51
5.177552e+000 1.943163e+000 -8.331564e+000 33 21 26
2.381320e+000 2.715999e+000 -1.187060e+001 150 121 93
2.797146e+000 2.521240e+000 -1.055436e+001 193 177 151
2.024191e+000 2.511250e+000 -1.061555e+001 249 230 198
-7.746831e-002 1.669267e+000 -6.694471e+000 86 69 40
-6.182250e-003 1.489110e+000 -6.066964e+000 176 147 103
-6.182250e-003 1.489110e+000 -6.066964e+000 176 147 103
4.489403e-001 1.461979e+000 -5.763677e+000 92 78 51
-1.263374e-002 1.476616e+000 -5.928462e+000 223 207 171
4.523727e-002 1.475842e+000 -5.870806e+000 108 94 68
-1.256090e-002 1.491835e+000 -5.931277e+000 112 100 74
4.451910e-001 -1.016028e-001 -6.551029e+000 12 7 2
3.105127e-001 2.009945e-002 -6.689722e+000 84 81 66
3.936921e-001 8.362196e-001 -6.357132e+000 148 134 107
1.012308e-001 1.085462e+000 -6.412135e+000 236 213 164
1.351336e-001 1.136511e+000 -6.396097e+000 33 6 3
2.717719e+000 2.244574e+000 -1.217529e+001 244 190 133
2.975771e+000 2.310302e+000 -1.220552e+001 227 182 128
2.532104e+000 2.311273e+000 -1.209109e+001 238 179 118
3.106261e+000 2.335853e+000 -1.207346e+001 232 187 130
2.847345e+000 2.430453e+000 -1.185750e+001 255 209 154
2.885726e+000 2.522691e+000 -1.210553e+001 70 26 0
1.475882e-001 1.226793e+000 -6.281621e+000 177 145 104
2.898329e+000 2.466021e+000 -1.181009e+001 228 178 119
2.483789e+000 2.563421e+000 -1.208831e+001 196 129 56
2.635252e+000 2.646517e+000 -1.192399e+001 53 14 0
2.653846e+000 2.678849e+000 -1.185309e+001 255 210 157
3.729796e-001 1.207707e+000 -5.888649e+000 74 44 8
3.729796e-001 1.207707e+000 -5.888649e+000 74 44 8
1.421187e-001 1.325045e+000 -6.288737e+000 224 189 147
2.508139e+000 2.551962e+000 -1.057593e+001 192 172 145
2.446149e-001 1.266912e+000 -5.931928e+000 201 173 131
1.694017e-001 1.377173e+000 -6.178202e+000 247 215 167
1.096654e-001 1.456813e+000 -5.822960e+000 98 83 58
6.655080e-002 1.467097e+000 -5.851470e+000 172 158 130
5.219776e-002 1.474208e+000 -5.863869e+000 121 106 82
-9.352524e-002 1.531929e+000 -6.071700e+000 91 80 50
1.423721e-002 1.485520e+000 -5.898495e+000 168 158 133
-6.222700e-001 1.457046e+000 -5.877478e+000 46 48 45
2.071058e-001 4.941681e-001 -6.334838e+000 88 73 44
3.923983e-001 6.070041e-001 -6.407535e+000 149 136 104
3.923983e-001 6.070041e-001 -6.407535e+000 149 136 104
3.133682e-001 9.233835e-001 -6.555261e+000 81 74 59
3.560744e-001 1.046934e+000 -6.154731e+000 63 48 24
3.170415e-001 1.121152e+000 -6.457538e+000 96 87 70
3.063238e+000 2.212056e+000 -1.226441e+001 90 50 9
2.927615e+000 2.278475e+000 -1.230229e+001 46 8 0
2.458741e+000 2.479327e+000 -1.214536e+001 248 194 134
2.707451e+000 2.459116e+000 -1.200506e+001 255 204 137
2.995709e+000 2.482549e+000 -1.188421e+001 238 180 121
2.676275e+000 2.605721e+000 -1.194468e+001 255 231 164
2.542878e+000 2.717919e+000 -1.201294e+001 249 197 133
1.456430e-001 1.321107e+000 -6.265756e+000 161 128 85
2.486496e+000 2.517105e+000 -1.053075e+001 145 128 103
1.432990e-001 1.335767e+000 -6.307400e+000 131 103 64
1.001907e-001 1.378982e+000 -5.949456e+000 195 163 114
-1.032391e-001 1.518973e+000 -6.089767e+000 79 67 44
1.843821e-002 1.471321e+000 -5.899455e+000 222 201 170
-7.777615e-002 1.507639e+000 -6.028454e+000 176 165 147
3.044252e-001 4.996173e-003 -6.500379e+000 80 71 56
4.474595e-001 1.044708e-001 -6.520288e+000 150 137 113
3.043108e-001 4.184035e-001 -6.444992e+000 88 77 55
2.259213e-001 1.554378e-001 -6.431571e+000 28 26 27
3.693338e-001 1.454821e+000 -5.761419e+000 146 139 123
3.113397e-001 1.353902e-001 -6.494587e+000 2 1 0
3.992678e-001 1.052138e+000 -6.101094e+000 212 198 158
5.676391e-001 1.470908e+000 -5.860839e+000 200 182 157
3.771799e-001 1.520374e-001 -6.514156e+000 166 149 121
3.781258e-001 1.993278e-001 -6.509616e+000 161 144 115
3.541453e-001 8.631496e-001 -6.360943e+000 92 80 68
-1.159820e+000 1.160571e+000 -8.761507e+000 46 20 3
5.511665e-001 1.193444e+000 -6.190262e+000 182 158 122
5.883930e-001 1.380329e+000 -5.927604e+000 176 142 104
9.483862e-001 1.690077e+000 -6.681544e+000 210 179 133
4.753365e-001 6.771098e-002 -6.554810e+000 152 174 217
3.611109e-001 7.206736e-002 -6.533678e+000 87 74 57
3.363125e-001 6.152723e-001 -6.385560e+000 135 120 97
3.714712e-001 7.756291e-001 -6.377935e+000 164 153 123
9.759330e-001 2.661614e+000 -1.124111e+001 220 199 168
-3.952529e-001 1.613575e+000 -6.551982e+000 203 185 165
4.668521e-001 -9.398585e-002 -6.548160e+000 161 145 128
3.109364e-001 -2.884402e-002 -6.491106e+000 7 4 5
4.149011e-001 6.881933e-002 -6.527877e+000 152 136 110
3.028697e-001 2.276514e-001 -6.443032e+000 85 73 51
4.074606e-001 3.639728e-001 -6.455991e+000 168 154 128
-1.702741e+000 4.413850e-001 -9.209903e+000 198 204 227
3.728205e-001 6.560217e-001 -6.405366e+000 179 165 136
-1.721990e+000 4.961400e-001 -9.198075e+000 86 69 16
3.702653e-001 7.986834e-001 -6.379280e+000 187 176 144
-1.230857e+000 1.179639e+000 -8.829414e+000 176 132 65
5.447673e-001 1.141620e+000 -6.503856e+000 21 14 6
4.802950e-001 1.114306e+000 -6.143997e+000 108 82 49
5.402785e-001 1.138521e+000 -6.183288e+000 138 116 92
2.136916e-001 1.365211e+000 -5.883509e+000 230 198 151
6.570503e-001 1.530865e+000 -6.322764e+000 95 81 70
7.758163e-001 1.494892e+000 -5.983615e+000 56 46 36
3.860287e-001 -1.133104e-001 -6.583922e+000 17 12 8
3.685409e-001 -1.049243e-001 -6.555564e+000 15 11 8
4.160485e-001 5.810916e-001 -6.416343e+000 45 36 29
3.494231e-001 6.353112e-001 -6.400514e+000 119 105 79
3.494231e-001 6.353112e-001 -6.400514e+000 119 105 79
-1.729292e+000 4.514260e-001 -9.197336e+000 97 81 35
3.623414e-001 7.903292e-001 -6.372463e+000 75 62 38
3.527152e-001 8.410264e-001 -6.353412e+000 77 64 47
3.664534e-001 9.587422e-001 -6.343628e+000 13 10 1
4.990225e-001 2.282478e+000 -1.364787e+001 135 111 79
3.723898e-001 1.082179e+000 -6.097151e+000 253 238 205
4.529816e-001 1.091998e+000 -6.115848e+000 137 104 70
2.768834e-001 1.093456e+000 -6.118993e+000 165 132 91
5.291785e-001 1.165919e+000 -6.168170e+000 233 204 169
1.364737e+000 2.683788e+000 -1.312860e+001 138 107 56
5.384903e-001 1.201273e+000 -6.165360e+000 149 124 94
6.529022e-001 1.435946e+000 -6.342263e+000 118 98 74
6.596763e-001 1.447238e+000 -6.353398e+000 249 215 167
6.520222e-001 1.449093e+000 -6.340979e+000 113 96 71
6.585132e-001 1.462840e+000 -6.352632e+000 239 210 162
6.513201e-001 1.467999e+000 -6.345331e+000 111 95 71
7.463219e-001 1.539857e+000 -6.347295e+000 118 100 80
5.892038e-001 1.459567e+000 -5.820164e+000 88 75 60
3.677110e-001 -6.479582e-002 -6.560548e+000 86 75 55
4.396437e-001 4.785996e-002 -6.513980e+000 135 127 108
3.181458e-001 8.997066e-002 -6.492322e+000 62 49 32
3.587421e-001 1.201996e-001 -6.513730e+000 124 112 90
3.726769e-001 1.652319e-001 -6.520006e+000 172 156 128
2.956177e-001 4.570301e-001 -6.389177e+000 80 67 47
3.163104e-001 4.935242e-001 -6.396493e+000 118 110 90
-1.688646e+000 4.602337e-001 -9.231817e+000 100 86 32
3.461135e-001 8.102949e-001 -6.367491e+000 59 51 38
3.709143e-001 8.417061e-001 -6.369909e+000 170 155 126
-1.058784e+000 1.025096e+000 -8.763116e+000 48 26 2
-1.840561e+000 1.237104e+000 -8.771814e+000 220 188 137
-1.840561e+000 1.237104e+000 -8.771814e+000 220 188 137
3.715561e-001 1.028156e+000 -6.102726e+000 228 211 168
1.250209e+000 2.592015e+000 -1.330652e+001 55 25 2
1.311277e+000 2.612691e+000 -1.329399e+001 66 31 5
1.342227e+000 2.675760e+000 -1.320805e+001 64 43 4
5.312084e-001 1.196691e+000 -6.165365e+000 225 193 155
6.594359e-001 1.381697e+000 -6.366582e+000 238 213 171
5.441237e-001 1.331066e+000 -5.908327e+000 205 173 134
3.682953e-001 -1.253527e-001 -6.577368e+000 66 58 46
3.660322e-001 -3.867536e-002 -6.554717e+000 65 54 30
3.569742e-001 1.722723e-001 -6.496173e+000 37 24 8
3.656439e-001 5.066650e-001 -6.438676e+000 95 79 54
3.391874e-001 5.304396e-001 -6.411305e+000 80 68 42
-1.679961e+000 4.812794e-001 -9.228049e+000 203 177 116
2.528283e-001 6.791712e-001 -6.306994e+000 66 55 37
2.412100e-001 7.014600e-001 -6.292784e+000 125 109 86
2.412100e-001 7.014600e-001 -6.292784e+000 125 109 86
2.241281e-001 8.037142e-001 -6.256612e+000 77 60 42
-1.155124e+000 9.230824e-001 -8.854844e+000 173 151 91
-1.058660e+000 1.007338e+000 -8.782678e+000 120 101 49
-1.164084e+000 1.019862e+000 -8.825075e+000 184 143 87
-1.250984e+000 1.032503e+000 -8.869221e+000 207 168 116
-1.250984e+000 1.032503e+000 -8.869221e+000 207 168 116
-1.440204e+000 1.058238e+000 -8.836293e+000 205 175 103
-1.840940e+000 1.219835e+000 -8.776628e+000 52 25 0
3.599658e-001 9.966487e-001 -6.101265e+000 199 175 146
3.698866e-001 1.033139e+000 -6.092707e+000 90 68 38
4.544930e-001 1.110846e+000 -6.128809e+000 117 82 54
1.363714e+000 2.569742e+000 -1.309690e+001 79 57 11
-2.709647e+000 2.476681e+000 -1.052956e+001 28 15 6
9.257484e-001 2.642636e+000 -1.115693e+001 213 193 158
-1.997383e+000 2.341864e+000 -9.960002e+000 237 204 171
-2.213041e+000 2.522398e+000 -1.059787e+001 36 19 6
-5.005410e-001 1.624785e+000 -6.614099e+000 185 186 169
9.427109e-001 1.658045e+000 -6.710830e+000 207 200 179
3.373320e-001 9.214564e-003 -6.530878e+000 114 102 86
3.684906e-001 6.268917e-002 -6.536088e+000 77 71 45
3.258312e-001 1.036017e-001 -6.496561e+000 123 115 94
2.075405e-001 2.351128e-001 -6.372559e+000 176 162 141
3.715774e-001 5.601536e-001 -6.425717e+000 164 149 120
3.239118e-001 6.071461e-001 -6.378594e+000 69 57 33
3.251853e-001 6.252984e-001 -6.377696e+000 81 67 42
-1.533279e+000 4.105003e-001 -9.418093e+000 89 95 85
2.597825e-001 7.001049e-001 -6.307424e+000 82 69 52
2.320846e-001 7.592126e-001 -6.265865e+000 121 105 89
2.500964e-001 7.713331e-001 -6.286667e+000 66 53 34
2.298335e-001 8.027826e-001 -6.261866e+000 120 104 85
-1.586810e-002 1.021476e+000 -1.028645e+001 42 32 23
4.373841e-001 1.021023e+000 -6.304496e+000 152 137 118
4.326364e-001 1.038286e+000 -6.097163e+000 93 75 53
9.606615e-002 1.093095e+000 -6.425169e+000 81 61 32
1.408379e+000 2.701327e+000 -1.311616e+001 120 102 75
5.470414e-001 1.218369e+000 -5.935553e+000 87 62 32
-2.868678e+000 2.532758e+000 -1.046994e+001 41 21 0
8.089830e-001 1.703328e+000 -6.901717e+000 108 110 117
7.428759e-001 1.485376e+000 -5.941806e+000 64 48 32
5.680305e-001 1.455821e+000 -5.803237e+000 118 108 90
3.891363e-001 1.447094e+000 -5.758050e+000 115 103 81
6.236945e-001 1.478045e+000 -5.835547e+000 92 79 60
3.402714e-001 -4.783093e-002 -6.529581e+000 114 108 94
3.287675e-001 -4.373100e-002 -6.523011e+000 53 48 29
2.677228e-001 -3.005242e-002 -6.466952e+000 74 66 45
3.639152e-001 -4.862043e-002 -6.555099e+000 122 113 90
3.238236e-001 1.542220e-001 -6.471748e+000 52 43 33
3.332456e-001 1.710830e-001 -6.482762e+000 121 109 87
3.084133e-001 3.213629e-001 -6.428907e+000 127 112 89
3.504969e-001 6.309602e-001 -6.394859e+000 126 111 90
3.655762e-001 7.217730e-001 -6.388312e+000 69 57 35
3.680299e-001 7.247602e-001 -6.392195e+000 173 159 133
3.683808e-001 7.940720e-001 -6.378658e+000 175 164 134
5.229150e-001 8.122277e-001 -6.317532e+000 168 152 127
2.189648e-001 8.078878e-001 -6.251070e+000 123 108 87
1.036079e-001 1.072130e+000 -6.427224e+000 61 43 19
5.389251e-001 1.110683e+000 -6.452979e+000 162 149 126
1.376161e+000 2.659473e+000 -1.309041e+001 82 54 13
-2.005177e+000 2.273189e+000 -9.988217e+000 170 146 131
4.681148e-001 1.206423e+000 -5.896635e+000 253 226 194
4.950277e-001 1.211273e+000 -5.906387e+000 101 77 42
4.950277e-001 1.211273e+000 -5.906387e+000 101 77 42
-2.741720e+000 2.480187e+000 -1.051079e+001 35 5 0
7.607316e-001 1.492589e+000 -5.966384e+000 144 135 118
2.911968e-001 1.452093e+000 -5.769251e+000 205 191 162
4.457109e-001 1.273901e-001 -6.504696e+000 130 115 86
4.549072e-001 -9.301658e-002 -6.548434e+000 26 16 5
3.593341e-001 1.066247e+000 -6.152692e+000 194 173 144
4.508816e-001 1.363563e-001 -6.497142e+000 117 112 87
5.011023e-003 1.402971e+000 -6.060758e+000 184 152 101
1.114927e-001 1.466550e+000 -5.923148e+000 191 158 105
-3.802619e-002 1.496084e+000 -5.956315e+000 163 157 135
-3.802619e-002 1.496084e+000 -5.956315e+000 163 157 135
4.830797e-002 1.475782e+000 -5.866811e+000 158 143 119
1.960824e-001 2.544381e-001 -6.389279e+000 59 44 25
3.601283e-001 1.254320e+000 -6.071534e+000 214 182 141
1.461625e-001 1.468981e+000 -5.801286e+000 69 58 40
4.380704e-001 4.509882e-002 -6.524154e+000 122 111 86
-6.702409e+000 4.792547e+000 -2.395035e+001 10 25 31
3.103853e-001 4.088038e-001 -6.412520e+000 57 49 28
1.401894e+001 -3.873800e+000 -1.826232e+001 132 128 125
1.400354e+001 -3.060596e+000 -1.791090e+001 177 161 131
1.421772e+001 -2.867167e+000 -1.824637e+001 88 74 58
1.431453e+001 -2.054178e+000 -1.782863e+001 255 241 189
1.453090e+001 -4.038862e+000 -1.834251e+001 250 232 157
1.449274e+001 -3.669965e+000 -1.837655e+001 239 226 192
1.459157e+001 -3.383027e+000 -1.750480e+001 185 147 100
1.378372e+001 -3.835468e+000 -1.839356e+001 254 239 158
1.452017e+001 -1.717746e+000 -1.788426e+001 240 223 153
1.398327e+001 -3.812267e+000 -1.944993e+001 74 55 49
1.422805e+001 -2.177503e+000 -1.795504e+001 142 127 99
1.443183e+001 -2.361709e+000 -1.784668e+001 106 75 49
1.413866e+001 -1.695051e+000 -1.774247e+001 132 122 87
2.853396e-001 9.484940e-001 -6.340763e+000 25 24 21
1.461151e+001 -4.067668e+000 -1.786892e+001 62 45 29
1.455932e+001 -3.894806e+000 -1.829379e+001 92 61 40
1.456621e+001 -3.844396e+000 -1.819298e+001 240 204 150
1.453903e+001 -3.615503e+000 -1.708244e+001 66 47 43
1.444073e+001 -3.452798e+000 -1.700074e+001 110 66 53
1.399996e+001 -3.185045e+000 -1.816088e+001 244 232 206
1.463118e+001 -3.220929e+000 -1.800195e+001 67 45 36
1.463118e+001 -3.220929e+000 -1.800195e+001 67 45 36
1.401270e+001 -3.039922e+000 -1.819982e+001 255 246 213
1.471222e+001 -2.858571e+000 -1.809146e+001 202 172 119
1.457625e+001 -2.465574e+000 -1.750436e+001 66 38 17
2.914987e-001 9.326694e-001 -6.343562e+000 25 26 20
-5.956640e-002 1.490055e+000 -5.994167e+000 189 173 147
1.413873e+001 -4.276619e+000 -1.963272e+001 87 76 72
1.452916e+001 -3.899798e+000 -1.742397e+001 117 107 87
1.459717e+001 -3.973617e+000 -1.828639e+001 251 232 167
1.459717e+001 -3.973617e+000 -1.828639e+001 251 232 167
1.425101e+001 -3.720041e+000 -1.699216e+001 105 89 72
1.459449e+001 -3.870272e+000 -1.781201e+001 64 50 32
1.458714e+001 -3.780490e+000 -1.708169e+001 82 54 32
1.446951e+001 -3.454641e+000 -1.813578e+001 91 62 35
1.462110e+001 -3.256118e+000 -1.698852e+001 80 53 28
1.445571e+001 -1.964564e+000 -1.676956e+001 67 51 35
1.438146e+001 -1.696889e+000 -1.658677e+001 253 238 212
1.476943e+001 -1.682015e+000 -1.777019e+001 63 45 38
1.473013e+001 -1.445522e+000 -1.779871e+001 223 213 198
2.490613e-001 1.095705e+000 -6.133562e+000 162 133 93
2.650747e-001 1.311291e+000 -6.090435e+000 43 14 1
6.141281e-002 1.468597e+000 -5.858719e+000 162 148 119
1.432025e+001 -4.379033e+000 -1.924764e+001 81 63 55
1.433890e+001 -4.108704e+000 -1.716308e+001 205 192 146
1.433146e+001 -4.024911e+000 -1.713834e+001 210 197 152
1.429279e+001 -3.798786e+000 -2.014081e+001 120 106 102
1.429279e+001 -3.798786e+000 -2.014081e+001 120 106 102
1.437990e+001 -3.689146e+000 -1.997112e+001 126 102 91
1.414529e+001 -3.155012e+000 -1.803087e+001 166 151 124
1.414529e+001 -3.155012e+000 -1.803087e+001 166 151 124
1.472233e+001 -2.379985e+000 -2.004252e+001 121 108 99
1.386180e+001 -1.989784e+000 -1.795818e+001 159 136 89
1.441097e+001 -1.791641e+000 -1.774404e+001 100 64 32
3.584645e-001 1.056526e+000 -6.145909e+000 40 24 7
2.666298e-001 1.448013e+000 -6.592958e+000 227 194 151
7.096373e-002 1.341916e+000 -5.986014e+000 253 231 184
1.480464e+001 -4.141847e+000 -1.840908e+001 180 133 89
1.467806e+001 -3.405711e+000 -1.805308e+001 43 23 7
1.480395e+001 -1.539110e+000 -1.778647e+001 103 77 44
1.440921e-001 1.225165e+000 -6.277073e+000 177 145 104
3.697420e-001 1.205346e+000 -5.892642e+000 223 193 157
-1.121982e-001 1.535240e+000 -6.103393e+000 92 78 51
1.446645e+001 -3.450602e+000 -1.992305e+001 66 50 37
1.480473e+001 -2.972438e+000 -1.805148e+001 50 18 1
1.439505e+001 -2.836279e+000 -1.796411e+001 65 32 2
1.452821e+001 -1.846129e+000 -1.976719e+001 127 109 87
2.742703e-001 9.611497e-001 -6.336896e+000 110 106 94
-2.465259e-002 1.435360e+000 -6.122921e+000 198 166 115
-5.353895e-002 1.530489e+000 -6.200653e+000 165 132 91
-6.063404e-003 1.487989e+000 -5.919038e+000 189 177 151
3.786318e-001 1.045405e+000 -6.094996e+000 111 85 58
6.860904e-001 1.487419e+000 -6.337838e+000 247 215 162
3.036251e-001 -2.171669e-002 -6.508273e+000 80 73 55
-1.014236e+000 3.715537e-001 -9.875555e+000 189 197 219
5.696331e-001 1.452716e+000 -5.814096e+000 207 189 165
3.887066e-001 1.454968e+000 -5.758210e+000 169 161 142
3.248239e-001 1.199885e-001 -6.491873e+000 123 115 95
3.312565e-001 5.091613e-001 -6.406475e+000 66 58 38
6.689862e-001 1.241670e+000 -6.395525e+000 163 147 131
5.098513e-001 1.253871e+000 -6.129228e+000 201 163 120
6.454054e-001 1.470024e+000 -5.861688e+000 103 88 70
4.628227e-001 1.449138e+000 -5.770182e+000 111 98 82
3.695160e-001 8.326517e-001 -6.367724e+000 159 148 120
4.051077e-001 1.087150e+000 -6.098728e+000 165 130 95
5.910517e-001 1.366400e+000 -5.931775e+000 195 162 121
3.181927e-001 9.484151e-002 -6.490761e+000 75 59 43
3.623264e-001 1.468265e-001 -6.517493e+000 80 68 44
4.085965e-001 6.533535e-001 -6.394200e+000 153 141 117
6.051606e-001 1.398075e+000 -5.934407e+000 252 223 183
6.051606e-001 1.398075e+000 -5.934407e+000 252 223 183
3.718723e-001 5.470600e-001 -6.430590e+000 175 160 131
2.214336e-001 7.911927e-001 -6.255641e+000 76 61 42
2.214336e-001 7.911927e-001 -6.255641e+000 76 61 42
3.597312e-001 9.308855e-001 -6.341099e+000 46 43 24
2.752056e-001 1.354317e+000 -9.682483e+000 193 168 104
4.338846e-001 9.945301e-001 -6.112250e+000 195 179 155
6.714393e-001 1.472015e+000 -6.341974e+000 254 222 175
5.157282e-001 1.453283e+000 -5.788660e+000 197 182 162
5.189490e-001 1.457205e+000 -5.789722e+000 111 100 79
4.443295e-001 1.464206e+000 -5.762275e+000 115 101 75
3.668394e-001 5.588758e-001 -6.426194e+000 98 82 56
3.395090e-001 7.012565e-001 -6.372555e+000 76 67 43
2.288251e-001 7.829611e-001 -6.261379e+000 130 115 96
5.601666e-001 1.207278e+000 -6.193092e+000 100 75 55
5.879872e-001 1.443748e+000 -5.909551e+000 254 226 188
4.741521e-001 1.450421e+000 -5.773019e+000 105 93 79
9.369276e-001 1.422963e+000 -5.688869e+000 109 94 71
1.380843e+001 -2.772631e+000 -1.818144e+001 251 239 160
1.404620e+001 -3.592985e+000 -1.829561e+001 246 231 199
2.883800e+000 1.546915e+000 -8.742831e+000 132 102 41
1.422098e+001 -3.721808e+000 -1.822503e+001 134 118 102
1.450888e+001 -3.797338e+000 -2.038825e+001 130 114 92
1.438896e+001 -2.820449e+000 -1.992965e+001 237 216 195
1.431012e+001 -5.540797e-001 -1.930502e+001 59 44 29
1.431012e+001 -5.540797e-001 -1.930502e+001 59 44 29
1.434575e+001 -3.253446e+000 -1.992578e+001 60 43 35
1.430753e+001 -1.217707e+000 -1.945409e+001 74 62 47
2.919672e+000 1.486414e+000 -8.750689e+000 130 108 60
1.420604e+001 -3.216006e+000 -1.980962e+001 69 55 45
5.410003e-001 5.189225e-001 -6.400266e+000 116 110 90
1.426099e+001 -3.556607e+000 -1.822852e+001 247 236 204
1.434693e+001 -3.345035e+000 -1.988239e+001 158 147 141
5.072447e-002 1.480017e+000 -5.974479e+000 241 210 164
-3.210595e-003 1.483427e+000 -6.129845e+000 226 198 150
2.051401e-001 1.283541e+000 -5.906716e+000 255 251 208
2.589439e-001 1.339111e+000 -6.099482e+000 251 221 161
3.133161e-001 1.104965e-002 -6.700754e+000 74 69 47
2.732144e-001 1.347710e+000 -6.077865e+000 127 97 59
3.063217e-001 5.532689e-001 -6.545050e+000 71 58 41
3.272581e-001 2.235252e-001 -6.709574e+000 13 9 5
3.533908e-001 1.064511e+000 -6.131556e+000 90 67 49
4.589036e+000 2.360193e+000 -1.216006e+001 22 16 10
4.589036e+000 2.360193e+000 -1.216006e+001 22 16 10
3.216830e-001 -6.194822e-002 -6.690960e+000 8 5 0
3.193769e-001 4.641281e-001 -6.566198e+000 86 68 54
3.179503e-001 4.961272e-001 -6.581490e+000 68 62 50
1.697447e-001 1.116856e+000 -6.372656e+000 68 51 32
1.424537e-001 1.185985e+000 -6.360656e+000 168 146 115
-9.433292e-003 1.414378e+000 -6.082879e+000 247 219 170
1.617179e-001 1.114809e+000 -6.380723e+000 237 217 164
1.142245e+000 1.087084e+000 -6.172098e+000 243 233 199
1.223102e-001 1.147930e+000 -6.375654e+000 101 76 47
4.718360e+000 2.338595e+000 -1.218373e+001 27 12 1
4.435187e+000 2.412286e+000 -1.202565e+001 37 22 1
3.321799e+000 2.484377e+000 -1.035850e+001 55 34 13
3.565986e-001 1.290376e+000 -6.074867e+000 255 232 176
4.588214e-001 3.934231e-002 -6.519412e+000 137 128 98
4.575882e+000 2.305045e+000 -1.221976e+001 139 108 71
3.342609e+000 2.461316e+000 -1.059573e+001 63 43 18
-6.626157e-002 1.496393e+000 -5.995871e+000 102 87 61
3.687637e-001 8.597284e-002 -6.694809e+000 155 165 185
3.687637e-001 8.597284e-002 -6.694809e+000 155 165 185
3.051680e-001 2.878482e-001 -6.737843e+000 156 173 194
3.578348e-001 1.041114e+000 -6.153198e+000 168 151 125
1.306853e-001 1.139917e+000 -6.410404e+000 22 4 0
2.791516e-001 1.091046e+000 -6.112727e+000 149 112 67
3.739955e-001 1.221218e+000 -5.924852e+000 215 186 146
3.315512e+000 2.468560e+000 -1.063773e+001 69 43 8
3.428295e+000 2.492775e+000 -1.044939e+001 135 119 84
3.494627e+000 2.496226e+000 -1.043331e+001 64 43 12
-7.955012e-002 1.495894e+000 -6.023153e+000 204 187 160
3.161978e-001 3.122105e-001 -6.680695e+000 23 15 5
3.609889e-001 1.014266e+000 -6.106183e+000 72 61 41
2.620274e-001 1.469019e+000 -6.583469e+000 226 201 158
-3.171025e-001 1.435554e+000 -5.783289e+000 204 188 154
1.958510e-001 1.468844e-001 -6.441981e+000 94 79 56
3.228511e-001 1.891148e-001 -6.626598e+000 123 115 108
3.143876e-001 5.725977e-001 -6.414156e+000 123 116 83
2.810068e-001 9.573870e-001 -6.333862e+000 126 115 98
1.402124e-001 1.132533e+000 -6.379669e+000 62 37 4
1.671930e-001 1.430182e+000 -6.389976e+000 223 198 168
8.192137e-002 1.333553e+000 -5.975090e+000 247 216 172
9.767620e-003 1.493111e+000 -6.031403e+000 197 170 121
6.594127e-002 1.461203e+000 -5.855075e+000 210 193 163
7.301311e-001 1.280786e+000 -6.397783e+000 245 237 197
8.050908e-001 1.334653e+000 -6.399858e+000 21 15 16
2.638701e-001 4.318084e-001 -6.394395e+000 182 205 236
2.716978e-001 5.590998e-001 -6.436968e+000 191 211 236
2.733246e-001 -1.277512e-001 -6.506755e+000 88 72 58
6.723430e-001 1.294411e+000 -6.375942e+000 153 137 117
5.216191e-001 1.452936e+000 -5.812188e+000 215 196 165
5.198667e-001 1.525572e-001 -6.474523e+000 129 118 98
3.258185e-001 1.914430e-001 -6.487819e+000 120 110 90
2.153291e-001 5.126727e-001 -6.353601e+000 44 34 25
3.553715e-001 6.183903e-001 -6.411089e+000 97 84 62
6.507277e-001 1.390491e+000 -6.348717e+000 113 100 84
5.879502e-001 1.380711e+000 -5.928442e+000 169 136 95
6.586891e-002 7.097878e-001 -9.645984e+000 220 226 231
6.586891e-002 7.097878e-001 -9.645984e+000 220 226 231
4.195898e-001 1.049522e+000 -6.103508e+000 90 72 48
5.470941e-001 1.163245e+000 -6.200420e+000 211 188 157
5.122989e-001 1.577826e-001 -6.486269e+000 137 129 113
3.184313e-001 5.153877e-001 -6.388402e+000 103 95 75
3.400017e-001 5.209892e-001 -6.404749e+000 119 106 87
4.034516e-001 8.685521e-001 -6.346082e+000 143 129 109
4.575921e-001 4.694287e-001 -6.422134e+000 163 152 124
2.795342e-001 5.110884e-001 -6.360586e+000 128 116 100
-3.890549e-001 3.391193e-001 -9.736208e+000 54 52 39
3.767712e-001 6.191325e-001 -6.410595e+000 184 169 140
2.564927e-001 6.434937e-001 -6.314713e+000 106 88 70
3.060343e-001 -1.759319e-001 -6.556167e+000 71 70 63
3.695459e-001 8.746654e-003 -6.564886e+000 159 145 124
2.855091e-001 2.185800e-001 -6.444737e+000 111 103 84
3.325663e-001 2.231288e-001 -6.484776e+000 114 105 81
3.599792e-001 7.493865e-001 -6.374323e+000 94 82 58
9.137967e-002 7.886979e-001 -9.572200e+000 73 67 33
9.137967e-002 7.886979e-001 -9.572200e+000 73 67 33
3.470757e-001 8.317349e-001 -6.347537e+000 131 125 104
5.141587e-001 1.095724e+000 -6.250344e+000 29 20 11
4.399548e-001 1.090528e+000 -6.106232e+000 141 110 79
5.088457e-001 1.154295e+000 -6.154113e+000 201 166 124
-2.511764e+000 1.702640e+000 -8.842561e+000 17 8 2
-2.471754e+000 1.721454e+000 -8.775851e+000 90 75 42
-2.505506e+000 1.817303e+000 -8.785436e+000 24 16 4
3.416672e-001 1.452585e+000 -5.765324e+000 187 174 155
6.140683e-001 1.469323e+000 -5.842170e+000 99 92 76
5.072198e-001 -5.251532e-002 -6.537918e+000 169 158 138
3.622785e-001 1.364853e-001 -6.528186e+000 93 85 64
4.679647e-001 2.287968e-001 -6.486868e+000 157 147 126
4.237452e-001 5.938280e-001 -6.407198e+000 167 156 133
3.680751e-001 6.748479e-001 -6.400725e+000 190 172 148
3.726747e-001 7.512491e-001 -6.382834e+000 175 161 132
3.677976e-001 1.034570e+000 -6.097742e+000 89 71 45
4.284315e-001 1.062242e+000 -6.095418e+000 214 187 173
-2.536877e+000 1.747105e+000 -8.792612e+000 14 6 0
-2.539417e+000 1.751720e+000 -8.763353e+000 77 66 45
-2.539417e+000 1.751720e+000 -8.763353e+000 77 66 45
5.556132e-001 1.202183e+000 -6.193178e+000 176 152 121
6.835478e-001 1.250471e+000 -6.388835e+000 168 147 123
6.618351e-001 1.396954e+000 -6.350065e+000 229 199 153
-2.947876e-001 1.480010e+000 -6.022556e+000 133 132 127
7.500464e-001 1.490411e+000 -5.964312e+000 101 93 80
2.255639e-001 1.443882e+000 -5.769689e+000 131 117 94
2.837600e-001 1.447638e+000 -5.764569e+000 205 189 163
6.075662e-001 1.471532e+000 -5.837363e+000 143 135 122
3.186798e-001 8.115154e-003 -6.522027e+000 67 56 42
3.178325e-001 1.061070e-001 -6.495704e+000 64 56 37
2.969704e-001 5.170959e-001 -6.373533e+000 120 107 91
3.567834e-001 5.510578e-001 -6.422002e+000 84 72 50
3.604815e-001 5.876148e-001 -6.412849e+000 83 68 49
-3.724303e-001 3.383916e-001 -9.731998e+000 59 63 60
1.526213e-001 8.289077e-001 -9.596007e+000 205 185 135
3.616306e-001 8.038152e-001 -6.362434e+000 88 80 57
3.974136e-001 8.185266e-001 -6.360291e+000 116 101 71
1.142296e-001 9.863684e-001 -9.734201e+000 219 221 221
