ply
format ascii 1.0
element face 0
property list uchar int vertex_indices
element vertex 885
property float x
property float y
property float z
property uchar diffuse_red
property uchar diffuse_green
property uchar diffuse_blue
end_header
1.349030e+000 2.234122e+000 -1.622216e+001 136 118 94
1.299718e-001 1.119393e+000 -6.420105e+000 70 46 18
2.713211e+000 2.304691e+000 -1.198855e+001 245 190 134
3.651346e+000 2.219325e+000 -9.680472e+000 104 88 54
3.545320e-001 1.261806e+000 -6.081204e+000 255 228 175
2.442566e-001 1.263391e+000 -5.897924e+000 255 238 197
2.368201e-001 1.263807e+000 -5.899966e+000 255 228 193
-1.695136e-001 1.659537e+000 -6.611429e+000 114 98 73
3.868660e-001 1.448581e+000 -5.754971e+000 112 100 82
7.628911e-002 1.465050e+000 -5.845040e+000 117 97 72
3.940834e-001 1.451616e+000 -5.758066e+000 105 93 69
2.486085e-001 1.452100e+000 -5.772049e+000 103 90 69
2.487697e-001 1.452090e+000 -5.772148e+000 103 90 69
-2.017790e-001 1.369947e+000 -5.483111e+000 219 199 163
1.989347e-001 2.474210e-001 -6.391994e+000 68 50 28
2.212576e+001 -2.939912e+000 -3.710516e+001 176 160 133
2.185054e+001 -1.963514e+000 -3.717659e+001 251 233 182
3.806045e-001 6.119868e-001 -6.416702e+000 179 165 137
4.151144e-001 6.215675e-001 -6.400563e+000 158 143 117
4.183976e-001 6.471165e-001 -6.395133e+000 19 11 0
1.309513e+001 2.455562e+000 -3.668083e+001 208 207 187
1.261995e+001 2.497696e+000 -3.702462e+001 212 208 196
1.127351e+001 2.729516e+000 -3.803725e+001 204 190 167
1.209224e+001 2.793951e+000 -3.716560e+001 218 214 190
1.209224e+001 2.793951e+000 -3.716560e+001 218 214 190
-9.643379e-002 1.186462e+000 -9.561151e+000 192 185 161
1.302094e+001 3.349446e+000 -3.622494e+001 255 254 255
3.650655e-001 9.519751e-001 -6.344285e+000 91 81 69
3.743600e-001 9.544494e-001 -6.347689e+000 152 141 115
2.442176e-001 1.347333e+000 -1.001678e+001 54 45 41
1.189262e+001 4.305288e+000 -3.734180e+001 255 239 219
1.022945e+001 4.293489e+000 -3.046003e+001 248 230 180
7.469206e-002 1.467478e+000 -5.844996e+000 177 159 135
1.305151e-001 1.459682e+000 -5.811871e+000 191 176 153
2.906077e-001 1.452226e+000 -5.763114e+000 204 190 163
1.818274e-001 1.456030e+000 -5.789307e+000 128 111 83
4.358031e-001 -2.620958e-002 -6.544577e+000 7 6 1
1.443062e+001 -4.009481e+000 -1.859703e+001 132 128 125
-2.102869e-002 1.496525e+000 -5.936046e+000 117 110 84
1.378294e+001 -4.149801e+000 -1.843570e+001 249 238 158
1.421305e+001 -3.776854e+000 -1.972344e+001 91 64 44
1.438662e+001 -3.475268e+000 -1.849858e+001 80 70 57
1.452290e+001 -3.508586e+000 -1.862364e+001 80 70 57
1.452290e+001 -3.508586e+000 -1.862364e+001 80 70 57
1.414363e+001 -3.121916e+000 -1.819146e+001 229 221 191
1.413922e+001 -3.118446e+000 -1.818665e+001 229 221 191
1.424390e+001 -3.231519e+000 -1.963197e+001 93 70 55
1.607610e-001 1.325347e+000 -6.205034e+000 179 138 84
3.040792e-002 1.398395e+000 -6.021810e+000 192 164 117
3.040792e-002 1.398395e+000 -6.021810e+000 192 164 117
5.253337e-001 1.644586e-001 -6.483386e+000 14 12 8
1.414238e+001 -4.399597e+000 -1.946945e+001 255 241 215
1.417888e+001 -4.378570e+000 -1.974779e+001 135 130 129
1.404831e+001 -3.927143e+000 -1.861936e+001 254 239 158
3.676386e-001 1.080655e+000 -6.109142e+000 251 225 180
2.320948e+000 2.284565e+000 -1.220444e+001 237 197 135
2.312077e+000 2.401817e+000 -1.220870e+001 254 208 144
2.254362e+000 2.451938e+000 -1.222627e+001 69 38 18
2.254362e+000 2.451938e+000 -1.222627e+001 69 38 18
2.254362e+000 2.451938e+000 -1.222627e+001 69 38 18
2.244733e+000 2.677528e+000 -1.192379e+001 235 216 184
-3.217672e-004 1.488319e+000 -5.910903e+000 140 128 106
5.169992e-001 -6.665413e-002 -6.523747e+000 106 96 71
1.427948e+001 -2.723684e+000 -1.810027e+001 125 116 96
2.105660e+000 2.267373e+000 -1.239460e+001 248 189 121
3.601564e-002 1.411474e+000 -6.010225e+000 248 216 165
-7.553732e-002 1.505444e+000 -6.017090e+000 97 85 69
4.662784e-001 -2.651996e-002 -6.540547e+000 116 104 74
2.275826e+000 2.298714e+000 -1.249003e+001 33 8 7
2.084297e+000 2.347056e+000 -1.235013e+001 224 179 115
2.259140e+000 2.391330e+000 -1.228489e+001 229 192 127
2.262039e+000 2.437995e+000 -1.224473e+001 59 34 12
2.063762e+000 2.508635e+000 -1.223209e+001 25 9 5
2.125308e+000 2.582559e+000 -1.217919e+001 195 144 68
2.158370e+000 2.570233e+000 -1.210103e+001 204 164 102
2.191542e+000 2.629485e+000 -1.218852e+001 84 39 18
-6.072511e-003 1.479690e+000 -6.068210e+000 190 161 117
-6.072511e-003 1.479690e+000 -6.068210e+000 190 161 117
1.960450e-001 1.456337e+000 -5.786004e+000 108 100 79
-7.083488e-003 1.479140e+000 -5.920257e+000 216 200 165
1.426029e+001 -4.309526e+000 -1.836338e+001 167 158 151
1.425982e+001 -4.309652e+000 -1.836303e+001 167 158 151
1.435436e+001 -4.430879e+000 -1.948128e+001 101 94 79
1.441551e+001 -4.450042e+000 -1.954136e+001 101 94 79
1.447614e+001 -4.340868e+000 -2.018273e+001 246 226 202
1.429911e+001 -4.071004e+000 -1.834631e+001 133 118 95
1.440775e+001 -3.832047e+000 -2.006701e+001 68 46 44
1.426338e+001 -3.513435e+000 -1.821036e+001 146 130 107
1.419748e+001 -3.492222e+000 -1.815013e+001 146 130 107
1.426098e+001 -3.236709e+000 -1.820875e+001 243 229 202
1.403567e+001 -3.193457e+000 -1.828574e+001 133 115 93
1.403567e+001 -3.193457e+000 -1.828574e+001 133 115 93
2.040300e+000 2.300994e+000 -1.231987e+001 81 34 2
2.201046e+000 2.371919e+000 -1.236785e+001 156 92 30
2.201046e+000 2.371919e+000 -1.236785e+001 156 92 30
2.156333e+000 2.395668e+000 -1.234384e+001 238 205 147
2.435593e+000 2.422703e+000 -1.225609e+001 195 133 60
2.435593e+000 2.422703e+000 -1.225609e+001 195 133 60
1.963276e+000 2.426053e+000 -1.215475e+001 234 198 134
2.170327e+000 2.487933e+000 -1.218985e+001 98 52 8
1.503557e-001 1.221051e+000 -6.256527e+000 191 158 112
2.181208e+000 2.588261e+000 -1.207123e+001 101 64 38
2.307646e+000 2.621949e+000 -1.217865e+001 227 180 113
2.156715e+000 2.650748e+000 -1.217346e+001 191 145 87
2.143447e+000 2.679044e+000 -1.212548e+001 89 44 21
3.315121e-002 1.487129e+000 -5.995763e+000 197 166 119
-5.497871e-002 1.495633e+000 -5.980348e+000 106 90 65
3.358496e-002 1.475029e+000 -5.880009e+000 134 119 88
3.246683e-001 -1.281492e-002 -6.701484e+000 75 73 61
4.785947e-001 2.269483e-001 -6.467532e+000 136 129 103
1.452584e+001 -4.336623e+000 -1.963514e+001 126 113 101
1.439720e+001 -3.927446e+000 -2.013940e+001 236 222 199
1.449884e+001 -3.767428e+000 -1.998175e+001 61 39 34
1.398510e+001 -2.177181e+000 -1.796304e+001 248 239 208
1.429829e+001 -1.679724e+000 -1.812271e+001 251 251 225
1.435043e+001 -1.580116e+000 -1.937186e+001 55 41 35
1.401807e+001 -1.034311e+000 -1.782625e+001 148 127 94
2.262723e+000 2.272968e+000 -1.237119e+001 184 147 95
2.256798e+000 2.483280e+000 -1.225384e+001 36 10 7
2.370576e+000 2.494575e+000 -1.216004e+001 254 223 165
2.266892e+000 2.542924e+000 -1.219150e+001 104 55 12
2.266892e+000 2.542924e+000 -1.219150e+001 104 55 12
2.383621e+000 2.618654e+000 -1.210328e+001 185 137 69
1.694088e+000 2.533721e+000 -1.071868e+001 214 199 168
1.694088e+000 2.533721e+000 -1.071868e+001 214 199 168
3.478882e-002 1.391910e+000 -6.015075e+000 243 210 165
5.500481e-002 1.390653e+000 -5.989452e+000 171 137 93
1.400912e+001 -4.200038e+000 -1.852382e+001 149 121 81
2.328391e+000 2.258118e+000 -1.241891e+001 229 192 140
2.322831e+000 2.381218e+000 -1.227016e+001 227 184 111
2.065712e+000 2.385514e+000 -1.228157e+001 87 51 7
2.020477e+000 2.415228e+000 -1.223253e+001 117 67 11
2.148976e+000 2.426703e+000 -1.213400e+001 221 168 110
2.201187e+000 2.567115e+000 -1.211749e+001 223 189 144
2.201187e+000 2.567115e+000 -1.211749e+001 223 189 144
1.717334e+000 2.605101e+000 -1.223385e+001 246 232 202
2.273904e+000 2.699573e+000 -1.186566e+001 154 131 101
-1.280144e-002 1.488332e+000 -5.926704e+000 174 162 138
4.572519e-001 3.346332e-001 -6.454129e+000 91 82 71
1.429802e+001 -2.176609e+000 -1.976870e+001 123 98 74
5.286912e-001 7.726358e-001 -6.326941e+000 143 129 100
2.888032e+000 1.175936e+000 -1.041695e+001 72 68 52
2.060383e+000 2.285871e+000 -1.231035e+001 240 196 149
2.261510e+000 2.325151e+000 -1.234575e+001 212 166 108
2.158672e+000 2.352934e+000 -1.237165e+001 222 190 152
2.240032e+000 2.414439e+000 -1.237128e+001 247 199 137
2.257097e+000 2.574263e+000 -1.222544e+001 60 14 0
2.016625e+000 2.591115e+000 -1.216742e+001 248 208 137
2.273774e+000 2.607314e+000 -1.217461e+001 58 12 0
2.214085e+000 2.618687e+000 -1.211184e+001 248 199 146
1.704685e+000 2.648449e+000 -1.222063e+001 245 230 197
2.191817e+000 2.724231e+000 -1.194622e+001 237 193 133
3.815886e-001 1.252328e+000 -5.875025e+000 248 230 182
1.317434e-002 1.474257e+000 -5.899734e+000 190 169 138
-4.519898e-002 1.487207e+000 -5.957460e+000 146 130 104
1.439677e+001 -4.326773e+000 -2.022444e+001 63 52 40
3.769460e-001 5.420944e-001 -6.435698e+000 152 138 106
4.248063e-001 5.986153e-001 -6.402431e+000 94 83 53
2.247493e+000 2.511555e+000 -1.216877e+001 254 229 168
2.068509e+000 2.537877e+000 -1.223531e+001 233 195 153
2.278108e+000 2.594113e+000 -1.219186e+001 251 203 149
2.377253e+000 2.609634e+000 -1.214298e+001 255 213 138
1.458328e+000 2.702076e+000 -1.329852e+001 110 83 54
1.486433e+000 2.664356e+000 -1.331458e+001 32 23 1
1.315212e+000 2.732408e+000 -1.321748e+001 74 52 6
2.308242e+000 2.538293e+000 -1.222648e+001 250 220 150
6.868813e-001 1.277831e+000 -6.395126e+000 115 103 84
4.462061e-001 3.494652e-001 -6.003822e+000 159 179 197
-1.123546e+000 9.815007e-001 -8.785972e+000 188 153 87
6.988335e-001 1.280899e+000 -6.395215e+000 247 218 174
-2.680283e-001 1.597842e+000 -6.464186e+000 109 106 101
4.244846e-001 1.741897e-001 -6.733906e+000 139 131 108
3.820269e-001 7.855252e-001 -6.379806e+000 151 138 112
-1.147530e+000 9.629248e-001 -8.775484e+000 152 125 75
4.121825e-001 1.041611e+000 -6.109224e+000 231 215 177
3.872762e-001 1.448710e+000 -5.755132e+000 109 94 75
-5.768314e-003 1.381794e+000 -5.528518e+000 68 60 49
2.530645e-001 4.612107e-001 -6.348188e+000 115 98 81
3.064660e-001 4.622040e-001 -6.392487e+000 117 105 81
3.314043e-001 6.253758e-001 -6.383950e+000 102 90 66
3.410620e-001 7.880604e-001 -6.356165e+000 94 86 66
-1.383468e+000 1.733384e+000 -9.262364e+000 77 56 17
7.623095e-001 1.545672e+000 -6.356693e+000 215 193 151
3.774923e-001 1.465538e+000 -5.752466e+000 159 147 121
2.171554e+001 -2.745069e+000 -3.686635e+001 253 244 211
2.178822e+001 -1.872345e+000 -3.719768e+001 254 237 165
2.176215e+001 -1.872051e+000 -3.716959e+001 254 237 165
4.006390e-001 1.073001e+000 -6.101542e+000 56 35 22
2.204135e+001 -1.563481e+000 -3.711639e+001 255 241 214
1.278539e+000 2.112086e+000 -1.634107e+001 198 186 174
3.019830e+000 2.320054e+000 -1.203730e+001 247 199 137
4.033977e-001 2.001504e-001 -6.499258e+000 131 120 97
2.220178e+001 -3.036577e+000 -3.838227e+001 120 106 97
2.882558e+000 2.361289e+000 -1.201020e+001 188 123 55
2.820930e+000 2.368494e+000 -1.199273e+001 193 125 62
2.820930e+000 2.368494e+000 -1.199273e+001 193 125 62
4.044046e-001 1.455739e+000 -5.829048e+000 148 119 73
4.027035e-001 6.950393e-001 -6.389459e+000 95 79 54
1.440753e+001 2.386291e+000 -3.585293e+001 253 251 235
1.480398e-001 1.074720e+000 -6.391892e+000 198 175 150
4.173489e-001 1.039914e+000 -6.106736e+000 85 65 39
3.012447e+000 2.216946e+000 -1.220237e+001 253 215 169
1.622838e-001 1.457501e+000 -5.795731e+000 100 82 58
4.222129e-001 1.328334e-001 -6.506240e+000 133 120 95
4.002546e-001 8.109727e-001 -6.365233e+000 147 131 106
3.116872e+000 2.238142e+000 -1.199662e+001 255 192 127
3.005095e+000 2.270457e+000 -1.200777e+001 253 206 147
3.090702e+000 2.334443e+000 -1.193768e+001 164 104 42
5.381374e-001 1.208455e+000 -6.162779e+000 196 161 128
3.222255e-001 5.558064e-001 -6.631471e+000 72 59 40
1.781728e-001 1.355248e+000 -5.949119e+000 247 225 172
3.115055e-001 5.573256e-001 -6.620501e+000 67 54 35
5.099356e-001 -7.977807e-002 -6.530849e+000 111 99 71
4.353822e-001 -2.556382e-002 -6.543931e+000 7 6 1
3.020762e+000 2.483596e+000 -1.205026e+001 156 110 44
5.150174e-001 -2.658941e-002 -6.530548e+000 117 99 63
5.243664e-001 2.472728e-001 -6.450296e+000 130 122 86
1.508251e-001 1.121834e+000 -6.408523e+000 50 24 6
2.694352e+000 2.461349e+000 -1.209147e+001 217 165 98
2.695249e+000 2.604488e+000 -1.197317e+001 247 207 138
1.074124e-001 1.467904e+000 -5.825219e+000 82 68 55
3.216603e-001 2.194100e-001 -6.654023e+000 98 82 61
2.661830e+000 2.381949e+000 -1.213296e+001 2 4 1
2.878911e+000 2.565656e+000 -1.202651e+001 44 23 17
2.858640e+000 2.632929e+000 -1.204308e+001 242 202 138
3.016195e+000 2.640181e+000 -1.200311e+001 41 16 8
-5.445936e-002 1.527204e+000 -6.240501e+000 221 196 155
4.066167e+000 1.787392e+000 -1.288322e+001 110 89 72
4.066167e+000 1.787392e+000 -1.288322e+001 110 89 72
1.959845e-001 1.116564e+000 -6.365901e+000 53 43 23
2.895073e+000 2.609645e+000 -1.192903e+001 230 177 106
2.678260e+000 2.680212e+000 -1.190389e+001 213 159 87
3.244144e-001 -8.278503e-002 -6.714148e+000 90 83 56
2.664349e-001 3.512049e-001 -6.451910e+000 120 108 81
3.212326e-001 5.015494e-001 -6.559439e+000 91 79 60
3.000643e-001 9.163011e-001 -6.352720e+000 24 24 24
3.656257e-001 1.050408e+000 -6.139086e+000 167 148 115
1.645485e-001 1.115936e+000 -6.382649e+000 226 204 156
2.610687e+000 2.199168e+000 -1.214797e+001 168 103 43
1.556619e-001 1.147733e+000 -6.263062e+000 228 195 149
2.761733e+000 2.373547e+000 -1.216510e+001 62 27 14
2.761733e+000 2.373547e+000 -1.216510e+001 62 27 14
3.009353e+000 2.369390e+000 -1.210347e+001 213 152 93
2.611969e+000 2.630718e+000 -1.198589e+001 223 163 103
3.010644e+000 2.658609e+000 -1.200015e+001 22 6 3
3.010644e+000 2.658609e+000 -1.200015e+001 22 6 3
2.641160e+000 2.694412e+000 -1.206259e+001 57 24 5
5.195588e+000 2.000252e+000 -8.346219e+000 108 99 90
3.773748e-001 1.255752e+000 -5.896941e+000 180 138 95
4.487392e-001 -9.718597e-002 -6.541229e+000 27 22 12
5.154050e-001 -1.156484e-001 -6.536760e+000 89 91 75
3.268528e-001 -5.722236e-002 -6.692573e+000 87 80 68
3.275172e-001 -5.772278e-002 -6.693389e+000 87 80 68
4.949738e+000 8.589738e-001 -8.742064e+000 141 119 86
1.646355e-001 1.103669e+000 -6.385867e+000 209 186 152
1.722760e-001 1.118560e+000 -6.374090e+000 67 53 17
3.823765e-001 1.090085e+000 -6.095006e+000 140 105 67
1.480268e-001 1.147531e+000 -6.294307e+000 63 39 16
3.071662e+000 2.241478e+000 -1.217197e+001 214 158 91
3.049280e+000 2.415893e+000 -1.209032e+001 41 8 4
2.817467e+000 2.481626e+000 -1.204459e+001 22 6 4
2.614314e+000 2.490237e+000 -1.209729e+001 30 7 9
2.868406e+000 2.611242e+000 -1.210038e+001 202 155 79
2.576357e+000 2.584680e+000 -1.204338e+001 236 187 123
2.882473e+000 2.591843e+000 -1.199288e+001 33 6 5
2.638299e+000 2.597478e+000 -1.201201e+001 59 26 7
2.638299e+000 2.597478e+000 -1.201201e+001 59 26 7
2.745737e+000 2.696326e+000 -1.187096e+001 175 127 73
5.205664e+000 1.987376e+000 -8.315764e+000 15 11 13
2.841458e+000 2.522795e+000 -1.062673e+001 126 109 83
2.841458e+000 2.522795e+000 -1.062673e+001 126 109 83
2.503426e+000 2.537353e+000 -1.067270e+001 172 156 131
2.714847e-001 1.462218e+000 -6.583479e+000 109 86 60
6.768990e-002 1.383986e+000 -5.979608e+000 251 219 170
2.450489e-001 1.450664e+000 -5.771580e+000 98 88 63
-1.050647e-001 1.517232e+000 -6.081023e+000 107 95 68
-1.832274e-002 1.480849e+000 -5.936578e+000 204 188 152
-1.988013e-002 1.486547e+000 -5.935058e+000 121 111 83
3.189010e-001 -8.079846e-002 -6.696406e+000 75 69 50
5.272841e-001 1.642354e-001 -6.468458e+000 25 24 23
4.122302e-001 4.698741e-001 -6.428524e+000 133 122 92
3.014291e+000 2.316550e+000 -1.221158e+001 227 183 120
3.031293e+000 2.338530e+000 -1.214427e+001 76 31 6
2.622723e+000 2.444956e+000 -1.205879e+001 52 22 9
2.652819e+000 2.457236e+000 -1.198205e+001 255 211 150
2.952816e+000 2.490256e+000 -1.194720e+001 242 195 128
2.838893e+000 2.549212e+000 -1.205790e+001 19 5 0
2.529804e+000 2.587658e+000 -1.207034e+001 248 192 125
2.786631e+000 2.604077e+000 -1.201837e+001 89 41 19
2.569539e+000 2.695893e+000 -1.200436e+001 229 178 111
2.415516e+000 2.520019e+000 -1.059956e+001 219 203 177
2.437437e+000 2.539800e+000 -1.056878e+001 231 211 187
2.637013e-001 1.317978e+000 -6.093327e+000 252 218 170
1.733335e-001 1.475709e+000 -6.390736e+000 221 195 146
1.736969e-001 1.490407e+000 -6.390701e+000 205 181 135
4.896418e-002 1.386834e+000 -5.993437e+000 241 209 160
3.937713e-001 1.458301e+000 -5.755130e+000 171 161 134
2.847655e-001 1.451159e+000 -5.763529e+000 186 172 143
-1.217817e-001 1.541924e+000 -6.175444e+000 80 68 51
3.704048e-001 1.464596e+000 -5.755486e+000 106 99 73
3.289616e-001 1.885036e-001 -6.641853e+000 85 82 66
3.134734e-001 7.577125e-001 -6.553349e+000 95 86 69
4.069489e+000 1.856164e+000 -1.272882e+001 84 66 48
4.020042e+000 1.944060e+000 -1.289402e+001 64 49 40
3.019578e+000 2.221432e+000 -1.235519e+001 77 38 1
3.019578e+000 2.221432e+000 -1.235519e+001 77 38 1
3.019753e+000 2.370996e+000 -1.197513e+001 191 143 97
2.779354e+000 2.389217e+000 -1.205442e+001 193 131 57
2.976713e+000 2.459542e+000 -1.201925e+001 251 203 145
2.910319e+000 2.458865e+000 -1.191003e+001 164 112 51
2.910319e+000 2.458865e+000 -1.191003e+001 164 112 51
2.548698e+000 2.603100e+000 -1.205586e+001 178 119 51
5.200292e+000 1.948918e+000 -8.332060e+000 33 21 26
2.390304e+000 2.727428e+000 -1.189579e+001 150 121 93
2.810283e+000 2.531954e+000 -1.057366e+001 193 177 151
2.031325e+000 2.520726e+000 -1.063328e+001 249 230 198
-7.800782e-002 1.673591e+000 -6.696760e+000 86 69 40
-5.485156e-003 1.492201e+000 -6.065875e+000 176 147 103
-5.485156e-003 1.492201e+000 -6.065875e+000 176 147 103
4.535560e-001 1.465056e+000 -5.760513e+000 92 78 51
-1.162675e-002 1.479698e+000 -5.926751e+000 223 207 171
4.615459e-002 1.478706e+000 -5.868152e+000 108 94 68
-1.155294e-002 1.495035e+000 -5.929587e+000 112 100 74
4.529779e-001 -1.131039e-001 -6.557370e+000 12 7 2
3.132297e-001 1.185780e-002 -6.692671e+000 84 81 66
3.968548e-001 8.345023e-001 -6.357204e+000 148 134 107
1.027623e-001 1.085875e+000 -6.413809e+000 236 213 164
1.368908e-001 1.137346e+000 -6.397525e+000 33 6 3
2.720733e+000 2.250468e+000 -1.218727e+001 244 190 133
2.980637e+000 2.316949e+000 -1.221907e+001 227 182 128
2.535435e+000 2.317714e+000 -1.210474e+001 238 179 118
3.113510e+000 2.343325e+000 -1.208953e+001 232 187 130
2.853330e+000 2.438071e+000 -1.187232e+001 255 209 154
2.891085e+000 2.530496e+000 -1.212004e+001 70 26 0
1.494151e-001 1.228282e+000 -6.282030e+000 177 145 104
2.905095e+000 2.474045e+000 -1.182559e+001 228 178 119
2.489933e+000 2.572385e+000 -1.210794e+001 196 129 56
2.641596e+000 2.655637e+000 -1.194154e+001 53 14 0
2.660582e+000 2.688255e+000 -1.187080e+001 255 210 157
3.765562e-001 1.208657e+000 -5.885938e+000 74 44 8
3.765562e-001 1.208657e+000 -5.885938e+000 74 44 8
1.439313e-001 1.327247e+000 -6.289230e+000 224 189 147
2.517940e+000 2.561908e+000 -1.059303e+001 192 172 145
2.472222e-001 1.268475e+000 -5.929632e+000 201 173 131
1.714444e-001 1.379682e+000 -6.177837e+000 247 215 167
1.115339e-001 1.459722e+000 -5.820322e+000 98 83 58
6.888583e-002 1.470268e+000 -5.849789e+000 172 158 130
5.367231e-002 1.477261e+000 -5.861611e+000 121 106 82
-9.317013e-002 1.535443e+000 -6.071067e+000 91 80 50
1.495870e-002 1.488323e+000 -5.896100e+000 168 158 133
-6.260448e-001 1.460248e+000 -5.875897e+000 46 48 45
2.090790e-001 4.894400e-001 -6.335269e+000 88 73 44
3.955549e-001 6.032832e-001 -6.408036e+000 149 136 104
3.955549e-001 6.032832e-001 -6.408036e+000 149 136 104
3.163119e-001 9.224667e-001 -6.557603e+000 81 74 59
3.590225e-001 1.046922e+000 -6.153365e+000 63 48 24
3.199932e-001 1.121916e+000 -6.458984e+000 96 87 70
3.068583e+000 2.218401e+000 -1.227852e+001 90 50 9
2.931419e+000 2.284672e+000 -1.231472e+001 46 8 0
2.464084e+000 2.487553e+000 -1.216397e+001 248 194 134
2.712148e+000 2.466537e+000 -1.201937e+001 255 204 137
3.002985e+000 2.490766e+000 -1.190016e+001 238 180 121
2.682160e+000 2.614363e+000 -1.196111e+001 255 231 164
2.550590e+000 2.728338e+000 -1.203457e+001 249 197 133
1.474829e-001 1.323270e+000 -6.266064e+000 161 128 85
2.496285e+000 2.526877e+000 -1.054778e+001 145 128 103
1.451165e-001 1.338053e+000 -6.308033e+000 131 103 64
1.019082e-001 1.381370e+000 -5.947650e+000 195 163 114
-1.054387e-001 1.521254e+000 -6.086207e+000 79 67 44
1.967191e-002 1.474359e+000 -5.897498e+000 222 201 170
-8.030703e-002 1.509463e+000 -6.024040e+000 176 165 147
3.078372e-001 -3.955672e-003 -6.502958e+000 80 71 56
4.519838e-001 9.649126e-002 -6.523260e+000 150 137 113
3.075873e-001 4.130188e-001 -6.446919e+000 88 77 55
2.287127e-001 1.477653e-001 -6.433351e+000 28 26 27
3.735484e-001 1.457831e+000 -5.758461e+000 146 139 123
3.147503e-001 1.275895e-001 -6.497047e+000 2 1 0
4.034534e-001 1.052037e+000 -6.100605e+000 212 198 158
5.732622e-001 1.474195e+000 -5.858964e+000 200 182 157
3.810998e-001 1.444210e-001 -6.516901e+000 166 149 121
3.820258e-001 1.921173e-001 -6.512335e+000 161 144 115
3.577093e-001 8.614904e-001 -6.362163e+000 92 80 68
-1.171933e+000 1.160433e+000 -8.774727e+000 46 20 3
5.563773e-001 1.194581e+000 -6.190585e+000 182 158 122
5.941372e-001 1.382961e+000 -5.926295e+000 176 142 104
9.557176e-001 1.695010e+000 -6.684675e+000 210 179 133
4.800678e-001 5.943314e-002 -6.558100e+000 152 174 217
3.649042e-001 6.373779e-002 -6.536608e+000 87 74 57
3.398302e-001 6.115581e-001 -6.387045e+000 135 120 97
3.752008e-001 7.732715e-001 -6.379349e+000 164 153 123
9.766425e-001 2.672659e+000 -1.126519e+001 220 199 168
-3.979417e-001 1.617180e+000 -6.551756e+000 203 185 165
4.715903e-001 -1.036975e-001 -6.551598e+000 161 145 128
3.144356e-001 -3.806400e-002 -6.493639e+000 7 4 5
4.191481e-001 6.049864e-002 -6.530916e+000 152 136 110
3.062358e-001 2.206409e-001 -6.445057e+000 85 73 51
4.115968e-001 3.581934e-001 -6.458275e+000 168 154 128
-1.719392e+000 4.349908e-001 -9.224859e+000 198 204 227
3.765849e-001 6.526786e-001 -6.407046e+000 179 165 136
-1.738744e+000 4.901902e-001 -9.212771e+000 86 69 16
3.739683e-001 7.965076e-001 -6.380699e+000 187 176 144
-1.243616e+000 1.179607e+000 -8.842841e+000 176 132 65
5.495302e-001 1.142356e+000 -6.506216e+000 21 14 6
4.850346e-001 1.114768e+000 -6.143955e+000 108 82 49
5.454344e-001 1.139222e+000 -6.183619e+000 138 116 92
2.166022e-001 1.367407e+000 -5.880880e+000 230 198 151
6.627340e-001 1.534669e+000 -6.323867e+000 95 81 70
7.829043e-001 1.498443e+000 -5.982826e+000 56 46 36
3.900689e-001 -1.232235e-001 -6.587340e+000 17 12 8
3.724696e-001 -1.147738e-001 -6.558737e+000 15 11 8
4.201907e-001 5.771466e-001 -6.418247e+000 45 36 29
3.530152e-001 6.317726e-001 -6.402121e+000 119 105 79
3.530152e-001 6.317726e-001 -6.402121e+000 119 105 79
-1.746082e+000 4.451039e-001 -9.212027e+000 97 81 35
3.659976e-001 7.880853e-001 -6.373806e+000 75 62 38
3.562901e-001 8.391846e-001 -6.354591e+000 77 64 47
3.700895e-001 9.578708e-001 -6.344707e+000 13 10 1
4.932982e-001 2.291872e+000 -1.368982e+001 135 111 79
3.763530e-001 1.082298e+000 -6.096542e+000 253 238 205
4.575576e-001 1.092251e+000 -6.115552e+000 137 104 70
2.800524e-001 1.093594e+000 -6.118281e+000 165 132 91
5.342503e-001 1.166830e+000 -6.168362e+000 233 204 169
1.365176e+000 2.693975e+000 -1.315675e+001 138 107 56
5.436279e-001 1.202463e+000 -6.165495e+000 149 124 94
6.585873e-001 1.439034e+000 -6.343549e+000 118 98 74
6.653950e-001 1.450426e+000 -6.354731e+000 249 215 167
6.576936e-001 1.452280e+000 -6.342247e+000 113 96 71
6.642139e-001 1.466148e+000 -6.353946e+000 239 210 162
6.569698e-001 1.471343e+000 -6.346587e+000 111 95 71
7.526732e-001 1.543744e+000 -6.348656e+000 118 100 80
5.950594e-001 1.462772e+000 -5.818082e+000 88 75 60
3.716041e-001 -7.429822e-002 -6.563728e+000 86 75 55
4.441425e-001 3.938445e-002 -6.516930e+000 135 127 108
3.216362e-001 8.176827e-002 -6.494830e+000 62 49 32
3.625265e-001 1.122964e-001 -6.516449e+000 124 112 90
3.765358e-001 1.577221e-001 -6.522806e+000 172 156 128
2.988867e-001 4.519634e-001 -6.390664e+000 80 67 47
3.197145e-001 4.887798e-001 -6.398073e+000 118 110 90
-1.705262e+000 4.540007e-001 -9.247017e+000 100 86 32
3.496319e-001 8.081973e-001 -6.368766e+000 59 51 38
3.746125e-001 8.398833e-001 -6.371242e+000 170 155 126
-1.070114e+000 1.023931e+000 -8.776871e+000 48 26 2
-1.856892e+000 1.236903e+000 -8.781362e+000 220 188 137
-1.856892e+000 1.236903e+000 -8.781362e+000 220 188 137
3.755334e-001 1.027835e+000 -6.102183e+000 228 211 168
1.249901e+000 2.602112e+000 -1.333777e+001 55 25 2
1.311299e+000 2.622724e+000 -1.332419e+001 66 31 5
1.342456e+000 2.685985e+000 -1.323694e+001 64 43 4
5.362836e-001 1.197849e+000 -6.165523e+000 225 193 155
6.651752e-001 1.384381e+000 -6.368048e+000 238 213 171
5.495692e-001 1.333286e+000 -5.906820e+000 205 173 134
3.722025e-001 -1.353810e-001 -6.580706e+000 66 58 46
3.699053e-001 -4.795216e-002 -6.557837e+000 65 54 30
3.607408e-001 1.648181e-001 -6.498733e+000 37 24 8
3.693815e-001 5.020695e-001 -6.440662e+000 95 79 54
3.427373e-001 5.260232e-001 -6.413018e+000 80 68 42
-1.696516e+000 4.752255e-001 -9.243244e+000 203 177 116
2.557546e-001 6.759291e-001 -6.307689e+000 66 55 37
2.440533e-001 6.983935e-001 -6.293338e+000 125 109 86
2.440533e-001 6.983935e-001 -6.293338e+000 125 109 86
2.268363e-001 8.014734e-001 -6.256818e+000 77 60 42
-1.167316e+000 9.210137e-001 -8.869030e+000 173 151 91
-1.070019e+000 1.006029e+000 -8.796597e+000 120 101 49
-1.176311e+000 1.018580e+000 -8.838901e+000 184 143 87
-1.263932e+000 1.031262e+000 -8.883019e+000 207 168 116
-1.263932e+000 1.031262e+000 -8.883019e+000 207 168 116
-1.454411e+000 1.057049e+000 -8.848962e+000 205 175 103
-1.857288e+000 1.219503e+000 -8.786237e+000 52 25 0
3.638702e-001 9.960641e-001 -6.100699e+000 199 175 146
3.738621e-001 1.032856e+000 -6.092092e+000 90 68 38
4.590484e-001 1.111261e+000 -6.128609e+000 117 82 54
1.364319e+000 2.579415e+000 -1.312577e+001 79 57 11
-2.734587e+000 2.484951e+000 -1.054559e+001 28 15 6
9.262530e-001 2.653692e+000 -1.118112e+001 213 193 158
-2.017550e+000 2.350288e+000 -9.976823e+000 237 204 171
-2.235982e+000 2.532191e+000 -1.061832e+001 36 19 6
-5.040122e-001 1.628335e+000 -6.613838e+000 185 186 169
9.499931e-001 1.662768e+000 -6.714169e+000 207 200 179
3.409670e-001 3.195138e-004 -6.533765e+000 114 102 86
3.723557e-001 5.429392e-002 -6.539020e+000 77 71 45
3.293716e-001 9.552322e-002 -6.499111e+000 123 115 94
2.102298e-001 2.281157e-001 -6.373827e+000 176 162 141
3.753547e-001 5.560041e-001 -6.427593e+000 164 149 120
3.273461e-001 6.033586e-001 -6.379994e+000 69 57 33
3.286188e-001 6.216599e-001 -6.379094e+000 81 67 42
-1.549228e+000 4.039160e-001 -9.435649e+000 89 95 85
2.627528e-001 6.970401e-001 -6.308130e+000 82 69 52
2.348786e-001 7.566094e-001 -6.266138e+000 121 105 89
2.529830e-001 7.688464e-001 -6.287167e+000 66 53 34
2.325795e-001 8.005384e-001 -6.262125e+000 120 104 85
-2.086534e-002 1.021089e+000 -1.031324e+001 42 32 23
4.416129e-001 1.020704e+000 -6.305442e+000 152 137 118
4.371043e-001 1.038090e+000 -6.096727e+000 93 75 53
9.737038e-002 1.093124e+000 -6.426010e+000 81 61 32
1.409028e+000 2.711445e+000 -1.314345e+001 120 102 75
5.525507e-001 1.219686e+000 -5.934220e+000 87 62 32
-2.893593e+000 2.540790e+000 -1.048349e+001 41 21 0
8.149774e-001 1.708434e+000 -6.906142e+000 108 110 117
7.497679e-001 1.488846e+000 -5.940723e+000 64 48 32
5.737429e-001 1.458985e+000 -5.801011e+000 118 108 90
3.935103e-001 1.450065e+000 -5.755131e+000 115 103 81
6.297902e-001 1.481408e+000 -5.833622e+000 92 79 60
3.439698e-001 -5.720115e-002 -6.532469e+000 114 108 94
3.323773e-001 -5.307204e-002 -6.525821e+000 53 48 29
2.709006e-001 -3.930338e-002 -6.469202e+000 74 66 45
3.677756e-001 -5.798458e-002 -6.558223e+000 122 113 90
3.273600e-001 1.465922e-001 -6.474068e+000 52 43 33
3.368353e-001 1.636039e-001 -6.485172e+000 121 109 87
3.117966e-001 3.151573e-001 -6.430791e+000 127 112 89
3.541090e-001 6.273915e-001 -6.396426e+000 126 111 90
3.692717e-001 7.189679e-001 -6.389815e+000 69 57 35
3.717366e-001 7.219747e-001 -6.393739e+000 173 159 133
3.720719e-001 7.918570e-001 -6.380071e+000 175 164 134
5.279368e-001 8.102641e-001 -6.318869e+000 168 152 127
2.216383e-001 8.056773e-001 -6.251222e+000 123 108 87
1.049788e-001 1.071996e+000 -6.428112e+000 61 43 19
5.437264e-001 1.111163e+000 -6.455025e+000 162 149 126
1.376736e+000 2.669515e+000 -1.311841e+001 82 54 13
-2.025491e+000 2.281123e+000 -1.000537e+001 170 146 131
4.730514e-001 1.207588e+000 -5.894886e+000 253 226 194
5.001634e-001 1.212497e+000 -5.904759e+000 101 77 42
5.001634e-001 1.212497e+000 -5.904759e+000 101 77 42
-2.766665e+000 2.488364e+000 -1.052631e+001 35 5 0
7.677261e-001 1.496118e+000 -5.965471e+000 144 135 118
2.947895e-001 1.455017e+000 -5.766172e+000 205 191 162
4.497474e-001 1.197847e-001 -6.506399e+000 130 115 86
4.591216e-001 -1.023193e-001 -6.550588e+000 26 16 5
3.629132e-001 1.066337e+000 -6.151923e+000 194 173 144
4.549534e-001 1.288216e-001 -6.498774e+000 117 112 87
6.024612e-003 1.405566e+000 -6.059842e+000 184 152 101
1.134595e-001 1.469620e+000 -5.921290e+000 191 158 105
-3.715422e-002 1.499372e+000 -5.954904e+000 163 157 135
-3.715422e-002 1.499372e+000 -5.954904e+000 163 157 135
4.947408e-002 1.478821e+000 -5.864131e+000 158 143 119
1.983845e-001 2.477680e-001 -6.390544e+000 59 44 25
3.636489e-001 1.255814e+000 -6.070124e+000 214 182 141
1.484746e-001 1.472057e+000 -5.798549e+000 69 58 40
4.425677e-001 3.660568e-002 -6.527171e+000 122 111 86
-6.766889e+000 4.810743e+000 -2.400846e+001 10 25 31
3.137700e-001 4.033595e-001 -6.414229e+000 57 49 28
1.425049e+001 -3.955992e+000 -1.844935e+001 132 128 125
1.416873e+001 -3.110979e+000 -1.803439e+001 177 161 131
1.434496e+001 -2.907659e+000 -1.833883e+001 88 74 58
1.447059e+001 -2.087519e+000 -1.793879e+001 255 241 189
1.464184e+001 -4.082602e+000 -1.841907e+001 250 232 157
1.467881e+001 -3.733804e+000 -1.851882e+001 239 226 192
1.469339e+001 -3.421601e+000 -1.756730e+001 185 147 100
1.391980e+001 -3.879377e+000 -1.849692e+001 254 239 158
1.460081e+001 -1.735644e+000 -1.793037e+001 240 223 153
1.412032e+001 -3.862094e+000 -1.956474e+001 74 55 49
1.436326e+001 -2.212874e+000 -1.805112e+001 142 127 99
1.452319e+001 -2.386726e+000 -1.790256e+001 106 75 49
1.427595e+001 -1.722998e+000 -1.783797e+001 132 122 87
2.888060e-001 9.478566e-001 -6.342228e+000 25 24 21
1.470392e+001 -4.104888e+000 -1.792546e+001 62 45 29
1.471303e+001 -3.953642e+000 -1.840672e+001 92 61 40
1.467513e+001 -3.885879e+000 -1.826627e+001 240 204 150
1.463416e+001 -3.651066e+000 -1.713579e+001 66 47 43
1.453398e+001 -3.486759e+000 -1.705260e+001 110 66 53
1.417441e+001 -3.242020e+000 -1.829638e+001 244 232 206
1.482517e+001 -3.279047e+000 -1.814294e+001 67 45 36
1.473383e+001 -3.254926e+000 -1.806710e+001 67 45 36
1.400499e+001 -3.044426e+000 -1.817398e+001 255 246 213
1.488328e+001 -2.905722e+000 -1.821390e+001 202 172 119
1.466418e+001 -2.490773e+000 -1.755433e+001 66 38 17
2.950401e-001 9.318848e-001 -6.345077e+000 25 26 20
-5.910738e-002 1.493197e+000 -5.992711e+000 189 173 147
1.403693e+001 -4.256487e+000 -1.951913e+001 87 76 72
1.473178e+001 -3.970763e+000 -1.756699e+001 117 107 87
1.470841e+001 -4.016458e+000 -1.836172e+001 251 232 167
1.481097e+001 -4.049510e+000 -1.844923e+001 251 232 167
1.447215e+001 -3.794757e+000 -1.714592e+001 105 89 72
1.470051e+001 -3.911310e+000 -1.787982e+001 64 50 32
1.465694e+001 -3.810205e+000 -1.711531e+001 82 54 32
1.463689e+001 -3.510718e+000 -1.825927e+001 91 62 35
1.470881e+001 -3.287574e+000 -1.703548e+001 80 53 28
1.459156e+001 -1.997149e+000 -1.685177e+001 67 51 35
1.450479e+001 -1.721044e+000 -1.665730e+001 253 238 212
1.492399e+001 -1.709904e+000 -1.787317e+001 63 45 38
1.493041e+001 -1.478912e+000 -1.794044e+001 223 213 198
2.519455e-001 1.096145e+000 -6.132996e+000 162 133 93
2.677952e-001 1.313113e+000 -6.089270e+000 43 14 1
6.262673e-002 1.471416e+000 -5.856063e+000 162 148 119
1.452828e+001 -4.458739e+000 -1.942356e+001 81 63 55
1.448142e+001 -4.163240e+000 -1.725609e+001 205 192 146
1.449349e+001 -4.085329e+000 -1.724672e+001 210 197 152
1.438515e+001 -3.833763e+000 -2.021495e+001 120 106 102
1.438515e+001 -3.833763e+000 -2.021495e+001 120 106 102
1.441829e+001 -3.707211e+000 -1.999059e+001 126 102 91
1.428999e+001 -3.203646e+000 -1.813742e+001 166 151 124
1.428999e+001 -3.203646e+000 -1.813742e+001 166 151 124
1.480288e+001 -2.401080e+000 -2.010050e+001 121 108 99
1.394922e+001 -2.011444e+000 -1.801515e+001 159 136 89
1.449263e+001 -1.810430e+000 -1.779090e+001 100 64 32
3.620928e-001 1.056591e+000 -6.145195e+000 40 24 7
2.677212e-001 1.450918e+000 -6.593505e+000 227 194 151
7.245081e-002 1.344022e+000 -5.984492e+000 253 231 184
1.497131e+001 -4.204377e+000 -1.853105e+001 180 133 89
1.485492e+001 -3.461920e+000 -1.818013e+001 43 23 7
1.490247e+001 -1.556774e+000 -1.784415e+001 103 77 44
1.460783e-001 1.226775e+000 -6.277680e+000 177 145 104
3.732951e-001 1.206207e+000 -5.889981e+000 223 193 157
-1.122049e-001 1.538780e+000 -6.102651e+000 92 78 51
1.456133e+001 -3.483575e+000 -1.999660e+001 66 50 37
1.490320e+001 -3.003493e+000 -1.811254e+001 50 18 1
1.449342e+001 -2.866734e+000 -1.802729e+001 65 32 2
1.460039e+001 -1.862206e+000 -1.981658e+001 127 109 87
2.780209e-001 9.610671e-001 -6.338606e+000 110 106 94
-2.398297e-002 1.438201e+000 -6.122354e+000 198 166 115
-5.383519e-002 1.533841e+000 -6.199706e+000 165 132 91
-5.265150e-003 1.491036e+000 -5.916937e+000 189 177 151
3.826665e-001 1.045233e+000 -6.094413e+000 111 85 58
6.920147e-001 1.490903e+000 -6.339107e+000 247 215 162
3.070351e-001 -3.090390e-002 -6.510924e+000 80 73 55
-1.026309e+000 3.649962e-001 -9.896654e+000 189 197 219
5.753384e-001 1.455882e+000 -5.812010e+000 207 189 165
3.930720e-001 1.458000e+000 -5.755288e+000 169 161 142
3.283556e-001 1.120526e-001 -6.494376e+000 123 115 95
3.347602e-001 5.045622e-001 -6.408147e+000 66 58 38
6.748464e-001 1.243267e+000 -6.397320e+000 163 147 131
5.147743e-001 1.255466e+000 -6.129072e+000 201 163 120
6.516386e-001 1.473365e+000 -5.860061e+000 103 88 70
4.677482e-001 1.452193e+000 -5.767548e+000 111 98 82
3.732130e-001 8.307606e-001 -6.369027e+000 159 148 120
4.093247e-001 1.087334e+000 -6.098218e+000 165 130 95
5.968262e-001 1.368924e+000 -5.930503e+000 195 162 121
3.216850e-001 8.668211e-002 -6.493254e+000 75 59 43
3.661155e-001 1.391514e-001 -6.520259e+000 80 68 44
4.126661e-001 6.500171e-001 -6.395904e+000 153 141 117
6.110251e-001 1.400851e+000 -5.933167e+000 252 223 183
6.110251e-001 1.400851e+000 -5.933167e+000 252 223 183
3.756505e-001 5.428109e-001 -6.432510e+000 175 160 131
2.241410e-001 7.888423e-001 -6.255792e+000 76 61 42
2.241410e-001 7.888423e-001 -6.255792e+000 76 61 42
3.633356e-001 9.297857e-001 -6.342136e+000 46 43 24
2.735453e-001 1.356539e+000 -9.702438e+000 193 168 104
4.383617e-001 9.939906e-001 -6.111961e+000 195 179 155
6.772512e-001 1.475380e+000 -6.343260e+000 254 222 175
5.210411e-001 1.456414e+000 -5.786281e+000 197 182 162
5.242835e-001 1.460367e+000 -5.787356e+000 111 100 79
4.491135e-001 1.467358e+000 -5.759536e+000 115 101 75
3.705770e-001 5.547216e-001 -6.428063e+000 98 82 56
3.430273e-001 6.982628e-001 -6.373896e+000 76 67 43
2.315858e-001 7.805494e-001 -6.261597e+000 130 115 96
5.654353e-001 1.208539e+000 -6.193478e+000 100 75 55
5.937184e-001 1.446863e+000 -5.908097e+000 254 226 188
4.791615e-001 1.453496e+000 -5.770432e+000 105 93 79
9.456981e-001 1.426049e+000 -5.686858e+000 109 94 71
1.388543e+001 -2.797604e+000 -1.823269e+001 251 239 160
1.408176e+001 -3.611222e+000 -1.830754e+001 246 231 199
2.897790e+000 1.550303e+000 -8.749666e+000 132 102 41
1.430163e+001 -3.755770e+000 -1.827774e+001 134 118 102
1.458631e+001 -3.826970e+000 -2.044818e+001 130 114 92
1.445775e+001 -2.841920e+000 -1.997897e+001 237 216 195
1.430961e+001 -5.545285e-001 -1.928311e+001 59 44 29
1.434641e+001 -5.584779e-001 -1.931928e+001 59 44 29
1.442008e+001 -3.279152e+000 -1.998102e+001 60 43 35
1.439494e+001 -1.232707e+000 -1.951974e+001 74 62 47
2.934242e+000 1.489515e+000 -8.757989e+000 130 108 60
1.427984e+001 -3.241536e+000 -1.986461e+001 69 55 45
5.463707e-001 5.141631e-001 -6.402244e+000 116 110 90
1.434860e+001 -3.589632e+000 -1.828685e+001 247 236 204
1.440799e+001 -3.366286e+000 -1.992346e+001 158 147 141
5.206942e-002 1.483064e+000 -5.972740e+000 241 210 164
-2.769040e-003 1.486428e+000 -6.129012e+000 226 198 150
2.076577e-001 1.285095e+000 -5.904460e+000 255 251 208
2.613780e-001 1.341184e+000 -6.098205e+000 251 221 161
3.229576e-001 -7.630160e-004 -6.711222e+000 74 69 47
2.724744e-001 1.348839e+000 -6.074416e+000 127 97 59
3.130823e-001 5.481815e-001 -6.551123e+000 71 58 41
3.399732e-001 2.138743e-001 -6.722539e+000 13 9 5
3.724172e-001 1.065962e+000 -6.140192e+000 90 67 49
4.511660e+000 2.346888e+000 -1.206488e+001 22 16 10
4.511660e+000 2.346888e+000 -1.206488e+001 22 16 10
3.320553e-001 -7.475904e-002 -6.701874e+000 8 5 0
3.263743e-001 4.581374e-001 -6.572574e+000 86 68 54
3.251126e-001 4.903486e-001 -6.588214e+000 68 62 50
1.721513e-001 1.117789e+000 -6.374214e+000 68 51 32
1.446746e-001 1.187665e+000 -6.362078e+000 168 146 115
-8.711674e-003 1.417015e+000 -6.082014e+000 247 219 170
1.642636e-001 1.115920e+000 -6.382499e+000 237 217 164
1.148933e+000 1.086850e+000 -6.169132e+000 243 233 199
1.289581e-001 1.149640e+000 -6.381303e+000 101 76 47
4.639423e+000 2.325518e+000 -1.208803e+001 27 12 1
4.361538e+000 2.398836e+000 -1.193445e+001 37 22 1
3.282019e+000 2.476247e+000 -1.031090e+001 55 34 13
3.597720e-001 1.292063e+000 -6.073288e+000 255 232 176
4.694290e-001 2.785574e-002 -6.527098e+000 137 128 98
4.498430e+000 2.292334e+000 -1.212374e+001 139 108 71
3.300481e+000 2.452805e+000 -1.054410e+001 63 43 18
-6.527605e-002 1.499632e+000 -5.994925e+000 102 87 61
3.784957e-001 7.511521e-002 -6.704641e+000 155 165 185
3.784957e-001 7.511521e-002 -6.704641e+000 155 165 185
3.132484e-001 2.796232e-001 -6.747310e+000 156 173 194
3.622707e-001 1.041129e+000 -6.152912e+000 168 151 125
1.331056e-001 1.141104e+000 -6.412620e+000 22 4 0
2.828837e-001 1.091484e+000 -6.112203e+000 149 112 67
3.776135e-001 1.222243e+000 -5.922399e+000 215 186 146
3.273669e+000 2.460078e+000 -1.058596e+001 69 43 8
3.386290e+000 2.484143e+000 -1.039935e+001 135 119 84
3.452077e+000 2.487517e+000 -1.038316e+001 64 43 12
-7.946417e-002 1.498994e+000 -6.021816e+000 204 187 160
3.242857e-001 3.042145e-001 -6.689419e+000 23 15 5
3.655681e-001 1.013985e+000 -6.105578e+000 72 61 41
2.630289e-001 1.471923e+000 -6.584271e+000 226 201 158
-3.180886e-001 1.438476e+000 -5.781017e+000 204 188 154
2.037934e-001 1.366545e-001 -6.449295e+000 94 79 56
3.316541e-001 1.795193e-001 -6.635323e+000 123 115 108
3.210595e-001 5.676695e-001 -6.418633e+000 123 116 83
2.854085e-001 9.568451e-001 -6.335802e+000 126 115 98
1.427591e-001 1.133643e+000 -6.381650e+000 62 37 4
1.694848e-001 1.433342e+000 -6.391306e+000 223 198 168
8.354538e-002 1.335597e+000 -5.973503e+000 247 216 172
1.029275e-002 1.496101e+000 -6.029880e+000 197 170 121
6.683620e-002 1.463850e+000 -5.852281e+000 210 193 163
7.364467e-001 1.282719e+000 -6.399671e+000 245 237 197
8.119656e-001 1.337025e+000 -6.401810e+000 21 15 16
2.668998e-001 4.265008e-001 -6.395823e+000 182 205 236
2.746725e-001 5.548763e-001 -6.438611e+000 191 211 236
2.765437e-001 -1.379080e-001 -6.509372e+000 88 72 58
6.782172e-001 1.296421e+000 -6.377598e+000 153 137 117
5.269227e-001 1.456083e+000 -5.810004e+000 215 196 165
5.249808e-001 1.450425e-001 -6.477478e+000 129 118 98
3.293214e-001 1.841203e-001 -6.490256e+000 120 110 90
2.180050e-001 5.080105e-001 -6.354532e+000 44 34 25
3.590084e-001 6.147255e-001 -6.412782e+000 97 84 62
6.564087e-001 1.393226e+000 -6.350095e+000 113 100 84
5.936623e-001 1.383359e+000 -5.927190e+000 169 136 95
6.323779e-002 7.069409e-001 -9.665615e+000 220 226 231
6.323779e-002 7.069409e-001 -9.665615e+000 220 226 231
4.239276e-001 1.049423e+000 -6.103102e+000 90 72 48
5.522562e-001 1.164157e+000 -6.200882e+000 211 188 157
5.173309e-001 1.503080e-001 -6.489281e+000 137 129 113
3.218572e-001 5.108277e-001 -6.389908e+000 103 95 75
3.435714e-001 5.164942e-001 -6.406428e+000 119 106 87
4.074336e-001 8.669854e-001 -6.347305e+000 143 129 109
4.621044e-001 4.645929e-001 -6.424310e+000 163 152 124
2.826958e-001 5.064602e-001 -6.361784e+000 128 116 100
-3.953748e-001 3.329095e-001 -9.756674e+000 54 52 39
3.805764e-001 6.154907e-001 -6.412351e+000 184 169 140
2.594782e-001 6.399530e-001 -6.315437e+000 106 88 70
3.094695e-001 -1.864940e-001 -6.559276e+000 71 70 63
3.733835e-001 -1.417508e-004 -6.568133e+000 159 145 124
2.887397e-001 2.114618e-001 -6.446727e+000 111 103 84
3.361109e-001 2.160856e-001 -6.487193e+000 114 105 81
3.636387e-001 7.468093e-001 -6.375692e+000 94 82 58
8.901765e-002 7.864767e-001 -9.591270e+000 73 67 33
8.901765e-002 7.864767e-001 -9.591270e+000 73 67 33
3.506303e-001 8.298219e-001 -6.348633e+000 131 125 104
5.190299e-001 1.096075e+000 -6.251085e+000 29 20 11
4.444279e-001 1.090776e+000 -6.105875e+000 141 110 79
5.137675e-001 1.155108e+000 -6.154200e+000 201 166 124
-2.528266e+000 1.704177e+000 -8.844207e+000 17 8 2
-2.487913e+000 1.723134e+000 -8.777267e+000 90 75 42
-2.521622e+000 1.819478e+000 -8.786421e+000 24 16 4
3.456895e-001 1.455547e+000 -5.762278e+000 187 174 155
6.200404e-001 1.472661e+000 -5.840417e+000 99 92 76
5.122518e-001 -6.184495e-002 -6.541441e+000 169 158 138
3.660455e-001 1.287130e-001 -6.531055e+000 93 85 64
4.725963e-001 2.219065e-001 -6.489701e+000 157 147 126
4.279426e-001 5.900122e-001 -6.409084e+000 167 156 133
3.717993e-001 6.716625e-001 -6.402345e+000 190 172 148
3.764226e-001 7.486982e-001 -6.384293e+000 175 161 132
3.717485e-001 1.034307e+000 -6.097152e+000 89 71 45
4.328428e-001 1.062252e+000 -6.094977e+000 214 187 173
-2.553119e+000 1.748809e+000 -8.793521e+000 14 6 0
-2.555516e+000 1.753418e+000 -8.763981e+000 77 66 45
-2.555516e+000 1.753418e+000 -8.763981e+000 77 66 45
5.608326e-001 1.203409e+000 -6.193585e+000 176 152 121
6.895196e-001 1.252149e+000 -6.390627e+000 168 147 123
6.675989e-001 1.399743e+000 -6.351465e+000 229 199 153
-2.951639e-001 1.482315e+000 -6.018498e+000 133 132 127
7.569188e-001 1.493968e+000 -5.963590e+000 101 93 80
2.287634e-001 1.446640e+000 -5.766259e+000 131 117 94
2.873711e-001 1.450496e+000 -5.761318e+000 205 189 163
6.134923e-001 1.474882e+000 -5.835563e+000 143 135 122
3.221686e-001 -8.163289e-004 -6.524812e+000 67 56 42
3.213021e-001 9.803373e-002 -6.498234e+000 64 56 37
3.002474e-001 5.125325e-001 -6.374869e+000 120 107 91
3.604490e-001 5.468309e-001 -6.423822e+000 84 72 50
3.641708e-001 5.836968e-001 -6.414593e+000 83 68 49
-3.786140e-001 3.321895e-001 -9.752479e+000 59 63 60
1.507127e-001 8.270458e-001 -9.615088e+000 205 185 135
3.652931e-001 8.016861e-001 -6.363690e+000 88 80 57
4.013545e-001 8.165469e-001 -6.361624e+000 116 101 71
1.118216e-001 9.856714e-001 -9.753517e+000 219 221 221
5.557508e-001 8.605998e-001 -6.308786e+000 28 23 20
-1.347029e+000 1.035925e+000 -8.228446e+000 241 190 142
-3.153126e+000 1.318753e+000 -9.388962e+000 252 251 210
4.412175e-001 1.054289e+000 -6.095383e+000 207 191 164
4.377957e-001 1.078043e+000 -6.129536e+000 238 221 202
-2.525799e+000 1.718326e+000 -8.840257e+000 26 17 1
-2.525799e+000 1.718326e+000 -8.840257e+000 26 17 1
-2.571751e+000 1.720977e+000 -8.777332e+000 41 30 6
-2.551852e+000 1.795888e+000 -8.784895e+000 86 75 52
5.375264e-001 1.241097e+000 -6.152925e+000 234 202 164
6.938343e-001 1.483458e+000 -5.894874e+000 125 112 93
5.865107e-001 1.464448e+000 -5.815803e+000 91 81 69
9.465691e-001 1.442784e+000 -5.755960e+000 149 134 105
3.202991e-001 -5.583248e-002 -6.541805e+000 110 106 94
3.312823e-001 2.667648e-002 -6.523766e+000 73 65 46
3.601118e-001 9.068679e-002 -6.533651e+000 74 61 42
3.263759e-001 1.025885e-001 -6.500528e+000 129 121 102
2.845858e-001 1.048858e-001 -6.465974e+000 128 120 99
2.588827e-001 2.013765e-001 -6.426588e+000 61 51 35
3.703771e-001 8.033270e-001 -6.368177e+000 87 80 52
2.485256e-001 1.102604e+000 -9.504091e+000 104 96 65
-1.470008e+000 1.137585e+000 -8.174103e+000 64 37 0
4.318044e-001 9.923015e-001 -6.114155e+000 90 70 45
3.713152e-001 1.008828e+000 -6.101546e+000 241 223 183
4.344723e-001 1.032856e+000 -6.103147e+000 102 82 52
4.784739e-001 1.118631e+000 -6.135922e+000 249 224 183
-2.562239e+000 1.717632e+000 -8.817945e+000 42 28 3
-2.552879e+000 1.758705e+000 -8.788863e+000 19 10 1
-2.499535e+000 1.789969e+000 -8.781133e+000 100 87 63
9.943337e-001 1.657685e+000 -6.759889e+000 105 104 91
1.001538e+000 1.655090e+000 -6.753038e+000 222 218 200
4.070971e-001 1.449527e+000 -5.755352e+000 151 137 110
6.317463e-001 1.480405e+000 -5.846540e+000 144 137 119
3.264553e-001 1.725645e-002 -6.525676e+000 104 98 80
3.233306e-001 1.692785e-001 -6.489107e+000 130 117 98
2.554769e-001 1.987026e-001 -6.424066e+000 132 120 108
3.342867e-001 2.000503e-001 -6.488599e+000 55 42 26
4.546799e-001 3.057045e-001 -6.465731e+000 150 136 123
3.090414e-001 4.025635e-001 -6.412150e+000 138 130 108
3.063978e-001 4.620170e-001 -6.392627e+000 139 131 110
3.590623e-001 6.264972e-001 -6.400647e+000 77 65 44
-2.677137e-001 4.763686e-001 -9.963624e+000 57 64 72
3.627163e-001 6.742421e-001 -6.397492e+000 81 66 45
2.429109e-001 7.111578e-001 -6.282577e+000 136 124 102
1.522420e-001 8.652182e-001 -9.663060e+000 39 44 35
2.383449e-001 7.833428e-001 -6.256914e+000 82 67 48
1.154490e-001 9.695519e-001 -9.738033e+000 228 221 220
3.665240e-001 9.034455e-001 -6.347039e+000 48 38 26
3.678276e-001 1.001228e+000 -6.100967e+000 121 104 77
5.479576e-001 1.117671e+000 -6.436360e+000 30 13 0
4.122333e-001 1.069343e+000 -6.092923e+000 116 95 69
4.725961e-001 2.303208e+000 -9.744326e+000 210 191 159
6.625283e-001 1.380443e+000 -6.354265e+000 138 115 88
5.851402e-001 1.380391e+000 -5.922850e+000 191 158 117
1.505450e+001 -4.777884e+000 -1.604716e+001 77 58 42
1.474655e+001 -3.716242e+000 -1.739402e+001 122 124 111
1.547791e+001 -3.421767e+000 -1.561110e+001 243 223 194
1.516533e+001 -2.686264e+000 -1.568541e+001 117 120 114
1.450580e+001 -4.553039e+000 -1.618957e+001 255 241 188
1.450580e+001 -4.553039e+000 -1.618957e+001 255 241 188
1.652230e+001 -4.694623e+000 -1.548207e+001 251 230 180
1.454383e+001 -4.306584e+000 -1.627210e+001 121 130 125
1.645233e+001 -4.425198e+000 -1.552665e+001 137 120 102
1.519650e+001 -3.211526e+000 -1.574168e+001 125 128 118
1.463061e+001 -2.185932e+000 -1.587543e+001 137 135 125
1.457793e+001 -1.568778e+000 -1.792316e+001 255 245 192
1.439390e+001 -4.658815e+000 -1.646718e+001 252 240 167
1.560122e+001 -4.669303e+000 -1.634352e+001 251 237 205
1.458889e+001 -1.803817e+000 -1.713037e+001 189 145 99
1.627908e+001 -1.629584e+000 -1.516579e+001 111 109 96
1.485032e+001 -4.752770e+000 -1.639441e+001 255 234 161
1.439065e+001 -4.443655e+000 -1.716818e+001 165 127 91
1.450262e+001 -4.286558e+000 -1.872161e+001 255 242 209
1.435953e+001 -2.040210e+000 -1.806764e+001 253 240 207
1.528223e+001 -1.868102e+000 -1.545648e+001 254 237 204
1.553086e+001 -1.861528e+000 -1.539443e+001 247 230 194
1.495202e+001 -5.035021e+000 -1.630381e+001 236 219 193
1.575146e+001 -5.088873e+000 -1.599848e+001 249 233 209
1.618575e+001 -4.764179e+000 -1.574292e+001 135 123 114
1.546266e+001 -4.428586e+000 -1.604168e+001 123 116 99
1.561698e+001 -4.368428e+000 -1.570820e+001 131 119 105
1.453347e+001 -2.911136e+000 -1.600675e+001 254 245 216
1.554647e+001 -2.751799e+000 -1.551740e+001 208 172 147
1.548740e+001 -2.675759e+000 -1.566081e+001 131 120 98
1.631973e+001 -2.714018e+000 -1.538700e+001 124 115 94
1.553590e+001 -2.562479e+000 -1.567547e+001 127 116 96
1.452427e+001 -2.336087e+000 -1.670782e+001 98 73 47
1.423384e+001 -1.465563e+000 -1.783143e+001 251 242 213
1.467347e+001 -1.356087e+000 -1.780427e+001 101 66 39
1.625003e+001 -5.035536e+000 -1.585402e+001 75 74 66
1.585809e+001 -5.002092e+000 -1.650879e+001 245 233 201
1.672628e+001 -4.500723e+000 -1.542008e+001 251 227 170
1.672628e+001 -4.500723e+000 -1.542008e+001 251 227 170
1.554789e+001 -4.253467e+000 -1.604133e+001 128 120 102
1.436302e+001 -4.204970e+000 -1.830084e+001 248 234 195
1.470575e+001 -4.104065e+000 -1.792613e+001 62 45 29
1.541825e+001 -3.897009e+000 -1.587901e+001 112 95 77
1.454190e+001 -3.780444e+000 -2.039430e+001 133 102 81
1.637183e+001 -2.202983e+000 -1.530383e+001 112 104 81
