ply
format ascii 1.0
element face 0
property list uchar int vertex_indices
element vertex 279
property float x
property float y
property float z
property uchar diffuse_red
property uchar diffuse_green
property uchar diffuse_blue
end_header
1.329428e+000 -6.089319e-001 2.772361e+000 175 175 175
1.559893e+000 -3.923547e-001 2.669343e+000 185 185 185
-4.036275e-001 7.676726e-001 2.251696e+000 255 255 255
1.543081e+000 -4.449053e-001 2.650928e+000 187 187 187
1.559893e+000 -3.923547e-001 2.669343e+000 185 185 185
1.612472e+000 -2.864048e-002 2.810662e+000 132 132 132
7.929842e-001 2.464958e-001 2.633228e+000 193 193 193
2.722539e-001 4.215364e-001 2.665773e+000 47 47 47
-3.982545e-001 7.972347e-001 2.248849e+000 31 31 31
-3.982545e-001 7.972347e-001 2.248849e+000 31 31 31
-3.982545e-001 7.972347e-001 2.248849e+000 31 31 31
-4.340833e-001 8.551596e-001 2.310334e+000 216 216 216
-3.309815e-001 2.028411e-001 2.213096e+000 24 24 24
9.180582e-001 2.569427e-001 2.550644e+000 130 130 130
8.868235e-001 2.299986e-001 2.651336e+000 17 17 17
8.193566e-001 5.795059e-001 2.816190e+000 59 59 59
5.113234e-001 7.730552e-001 2.920279e+000 62 62 62
1.701017e+000 -4.448647e-001 2.431397e+000 174 174 174
8.590489e-001 5.050615e-001 2.733426e+000 75 75 75
2.305272e-001 4.794315e-001 2.693328e+000 109 109 109
2.305272e-001 4.794315e-001 2.693328e+000 109 109 109
7.653632e-001 5.554702e-001 2.757178e+000 32 32 32
-1.661516e-001 7.350291e-001 2.264113e+000 76 76 76
4.700176e-001 8.247841e-001 2.946698e+000 160 160 160
7.093728e-001 -1.693514e+000 3.936135e+000 29 29 29
1.887932e+000 4.968936e-003 2.449005e+000 189 189 189
1.887932e+000 4.968936e-003 2.449005e+000 189 189 189
1.581194e+000 -8.351297e-002 2.819914e+000 183 183 183
7.595439e-001 2.491139e-001 2.714775e+000 67 67 67
9.025541e-001 6.067477e-001 2.803390e+000 19 19 19
3.079022e-001 5.865181e-001 2.694455e+000 48 48 48
-4.597311e-001 7.519804e-001 2.241904e+000 219 219 219
3.319817e-001 6.248415e-001 2.725544e+000 200 200 200
1.339090e+000 -5.389547e-001 2.784737e+000 173 173 173
8.571496e-001 2.040705e-001 2.610928e+000 33 33 33
1.046283e+000 2.891579e-001 2.625229e+000 48 48 48
9.622214e-001 2.722809e-001 2.654969e+000 123 123 123
6.957004e-001 2.707295e-001 2.720928e+000 30 30 30
8.199885e-001 5.734085e-001 2.785555e+000 29 29 29
-4.222978e-001 9.530215e-001 2.342165e+000 181 181 181
-4.468520e-001 9.482636e-001 2.344019e+000 188 188 188
4.887104e-001 8.515445e-001 2.965099e+000 68 68 68
1.503567e+000 -1.684115e+000 3.220473e+000 116 116 116
1.503567e+000 -1.684115e+000 3.220473e+000 116 116 116
9.985584e-001 -1.565002e+000 3.857818e+000 107 107 107
-1.416365e-001 7.196307e-001 2.245299e+000 85 85 85
-2.174173e-001 8.668140e-001 2.295257e+000 114 114 114
-2.816050e-001 9.109981e-001 2.303089e+000 195 195 195
-4.397379e-001 9.362631e-001 2.319517e+000 125 125 125
1.312652e+000 1.029993e+000 3.075154e+000 36 36 36
1.428907e+000 -1.781147e+000 3.193627e+000 114 114 114
1.154839e+000 -1.780232e+000 3.557130e+000 110 110 110
1.154839e+000 -1.780232e+000 3.557130e+000 110 110 110
1.142201e+000 -1.550189e+000 3.694342e+000 127 127 127
1.545555e+000 -3.870715e-001 2.688322e+000 137 137 137
1.545555e+000 -3.870715e-001 2.688322e+000 137 137 137
1.572256e+000 -3.305822e-001 2.695824e+000 185 185 185
1.888272e+000 -3.066458e-002 2.422263e+000 213 213 213
1.616670e+000 -1.948294e-001 2.799427e+000 198 198 198
8.603873e-001 2.244450e-001 2.623964e+000 162 162 162
8.603873e-001 2.244450e-001 2.623964e+000 162 162 162
-7.791642e-002 5.258723e-001 2.132852e+000 119 119 119
-8.899977e-002 6.378466e-001 2.172510e+000 117 117 117
4.406595e-001 7.446037e-001 2.883468e+000 62 62 62
-4.076298e-001 9.348849e-001 2.329628e+000 115 115 115
1.457171e+000 -1.795168e+000 3.174984e+000 111 111 111
1.302580e+000 -1.862969e+000 3.278579e+000 120 120 120
1.367648e+000 -1.758507e+000 3.292151e+000 117 117 117
1.190090e+000 -1.834243e+000 3.438766e+000 117 117 117
1.327421e+000 -1.715882e+000 3.353744e+000 121 121 121
1.221045e+000 -1.673541e+000 3.517628e+000 111 111 111
1.208212e+000 -1.661479e+000 3.531517e+000 53 53 53
1.330137e+000 -6.006140e-001 2.795387e+000 15 15 15
1.339288e+000 -5.649633e-001 2.765842e+000 177 177 177
1.574145e+000 -3.731046e-001 2.648810e+000 138 138 138
1.867276e+000 -6.567571e-002 2.439331e+000 211 211 211
1.897382e+000 1.491150e-002 2.449699e+000 202 202 202
1.573954e+000 -2.322919e-001 2.732819e+000 137 137 137
1.892955e+000 2.701247e-002 2.462082e+000 119 119 119
1.623149e+000 -1.361584e-001 2.743198e+000 134 134 134
1.599216e+000 -9.555544e-002 2.779041e+000 126 126 126
1.265701e+000 9.197608e-001 2.856074e+000 112 112 112
4.724664e-001 8.731093e-001 3.000489e+000 162 162 162
8.242816e-001 1.069129e+000 3.225936e+000 145 145 145
1.571830e+000 -1.637653e+000 3.107887e+000 109 109 109
1.248824e+000 -1.570656e+000 3.524077e+000 108 108 108
1.304876e+000 -5.875690e-001 2.755138e+000 186 186 186
1.882343e+000 -6.395912e-002 2.455618e+000 117 117 117
1.877817e+000 -8.386620e-003 2.428528e+000 131 131 131
1.904306e+000 7.488422e-002 2.458960e+000 134 134 134
7.976914e-001 1.930023e-001 2.613776e+000 33 33 33
1.952296e-001 5.913250e-001 2.695350e+000 135 135 135
4.982817e-001 7.387611e-001 2.897315e+000 184 184 184
1.524065e+000 -1.627422e+000 3.162213e+000 36 36 36
1.193984e+000 -1.546380e+000 3.630536e+000 108 108 108
1.053849e+000 -1.580297e+000 3.760258e+000 118 118 118
9.632938e-001 -1.630510e+000 3.840190e+000 116 116 116
1.922078e+000 -1.027445e-001 2.367102e+000 105 105 105
5.047950e-002 6.183127e-001 2.630971e+000 21 21 21
5.047950e-002 6.183127e-001 2.630971e+000 21 21 21
1.398032e+000 4.767783e-001 3.207264e+000 152 152 152
1.799145e-001 3.840827e-001 2.668202e+000 237 237 237
5.238702e-001 8.679108e-001 3.141075e+000 7 7 7
1.093705e+000 3.416203e-001 2.686569e+000 144 144 144
1.130978e+000 3.693201e-001 2.793204e+000 25 25 25
1.325336e+000 -5.920958e-001 2.762400e+000 178 178 178
1.911227e-001 2.905405e-001 2.680584e+000 83 83 83
8.134060e-001 5.347772e-001 2.736229e+000 212 212 212
8.134060e-001 5.347772e-001 2.736229e+000 212 212 212
2.989363e-001 -2.001319e+000 3.863587e+000 10 10 10
9.997701e-001 2.951941e-001 2.652872e+000 143 143 143
1.452193e-001 6.436665e-001 2.736718e+000 84 84 84
-9.771660e-001 2.260245e-001 4.958858e+000 32 32 32
4.622419e-001 -2.452595e+000 3.842646e+000 44 44 44
1.402772e+000 -1.595821e+000 3.340749e+000 66 66 66
1.449972e+000 -1.171147e+000 3.008833e+000 176 176 176
3.521434e-001 -1.944797e+000 3.896952e+000 85 85 85
-1.007718e-001 6.771893e-001 2.183354e+000 112 112 112
-1.775133e-001 7.698379e-001 2.269337e+000 199 199 199
1.851299e-001 6.597778e-001 2.800990e+000 33 33 33
1.276559e+000 -1.964045e+000 3.305925e+000 38 38 38
1.403955e+000 -1.755165e+000 3.236253e+000 40 40 40
1.012371e+000 -1.515132e+000 3.858666e+000 51 51 51
-1.667146e-001 7.219919e-001 2.224655e+000 184 184 184
4.400135e-001 6.199073e-001 2.730931e+000 103 103 103
-3.738220e-001 9.548623e-001 2.325794e+000 183 183 183
-4.800214e-001 9.630586e-001 2.343261e+000 114 114 114
1.312652e+000 1.029993e+000 3.075154e+000 36 36 36
-6.744163e-001 4.139675e-001 4.855763e+000 65 65 65
5.607007e-001 1.054148e+000 3.289248e+000 19 19 19
5.607007e-001 1.054148e+000 3.289248e+000 19 19 19
1.307674e+000 -1.831505e+000 3.335882e+000 99 99 99
8.557780e-001 -2.049183e+000 3.708823e+000 7 7 7
8.557780e-001 -2.049183e+000 3.708823e+000 7 7 7
1.428231e+000 -1.627535e+000 3.281234e+000 47 47 47
1.428231e+000 -1.627535e+000 3.281234e+000 47 47 47
1.294902e+000 -1.715686e+000 3.413023e+000 59 59 59
1.294902e+000 -1.715686e+000 3.413023e+000 59 59 59
8.000013e-001 -1.760741e+000 3.916591e+000 39 39 39
9.677874e-001 -1.567129e+000 3.839316e+000 40 40 40
1.339090e+000 -5.389547e-001 2.784737e+000 173 173 173
1.877574e+000 -5.614452e-002 2.411902e+000 206 206 206
-1.213216e-001 3.817092e-001 2.130415e+000 196 196 196
1.630111e+000 8.554963e-002 2.835349e+000 142 142 142
-6.029638e-002 5.065667e-001 2.146024e+000 204 204 204
-6.195231e-002 5.817658e-001 2.172599e+000 185 185 185
1.448613e+000 1.909679e-001 3.113435e+000 113 113 113
-5.597160e-002 7.568965e-001 2.293294e+000 110 110 110
1.655398e-001 5.914378e-001 2.715414e+000 32 32 32
-1.960922e-001 8.321528e-001 2.282836e+000 146 146 146
-3.171410e-001 8.265884e-001 2.300510e+000 240 240 240
-2.174173e-001 8.668140e-001 2.295257e+000 114 114 114
-3.142108e-001 9.241017e-001 2.329047e+000 191 191 191
-5.088485e-001 9.275187e-001 2.330966e+000 192 192 192
1.218982e+000 1.025406e+000 2.949271e+000 131 131 131
3.831436e-001 9.519957e-001 3.111958e+000 76 76 76
1.225925e+000 1.029060e+000 3.026037e+000 52 52 52
1.504993e+000 -1.710620e+000 3.153004e+000 42 42 42
8.665422e-001 -2.074144e+000 3.691019e+000 75 75 75
1.414259e+000 -1.620705e+000 3.309852e+000 99 99 99
8.590798e-001 -1.961466e+000 3.777646e+000 97 97 97
8.202688e-001 -1.850898e+000 3.855318e+000 50 50 50
1.375224e+000 -1.215370e+000 3.119155e+000 90 90 90
1.170664e+000 -1.489143e+000 3.679433e+000 121 121 121
9.500016e-001 -1.547537e+000 3.891086e+000 47 47 47
1.329428e+000 -6.089319e-001 2.772361e+000 175 175 175
1.530798e+000 -3.644357e-001 2.696631e+000 184 184 184
1.561959e+000 -2.978831e-001 2.701904e+000 160 160 160
1.893399e+000 7.045413e-002 2.483229e+000 205 205 205
8.286230e-001 1.849102e-001 2.622318e+000 150 150 150
5.428609e-001 3.123605e-001 2.713865e+000 35 35 35
1.485702e+000 1.818584e-001 3.088568e+000 142 142 142
4.243346e-001 6.732897e-001 2.710694e+000 199 199 199
-5.244030e-001 9.421546e-001 2.343594e+000 85 85 85
-4.507461e-001 9.703191e-001 2.348485e+000 115 115 115
1.175398e+000 1.105739e+000 3.157560e+000 75 75 75
8.072572e-001 1.078208e+000 3.250236e+000 62 62 62
1.247178e+000 -1.939764e+000 3.310405e+000 104 104 104
1.408098e+000 -1.808142e+000 3.202557e+000 56 56 56
1.629271e+000 -1.629302e+000 3.052248e+000 46 46 46
1.491881e+000 -1.681557e+000 3.164157e+000 92 92 92
1.073834e+000 -1.913704e+000 3.539388e+000 88 88 88
7.928610e-001 -2.104067e+000 3.746595e+000 34 34 34
9.733515e-001 -1.958504e+000 3.627485e+000 47 47 47
1.183441e+000 -1.735152e+000 3.496393e+000 43 43 43
6.933975e-001 -2.044442e+000 3.890304e+000 76 76 76
6.419920e-001 -2.077082e+000 3.931733e+000 73 73 73
1.168666e+000 -1.644572e+000 3.586539e+000 109 109 109
1.277647e+000 -1.541689e+000 3.491607e+000 110 110 110
1.229081e+000 -1.585181e+000 3.553565e+000 55 55 55
6.074405e-001 -1.891458e+000 4.085988e+000 74 74 74
1.142201e+000 -1.550189e+000 3.694342e+000 127 127 127
9.227685e-001 -1.616845e+000 3.908928e+000 90 90 90
1.335688e+000 -6.224442e-001 2.743053e+000 32 32 32
9.890731e-001 -1.469456e+000 3.887463e+000 51 51 51
1.027245e+000 9.853545e-002 2.404790e+000 94 94 94
1.586606e+000 -1.117333e-001 2.802786e+000 187 187 187
-3.933079e-001 1.840408e-001 2.214477e+000 207 207 207
1.612472e+000 -2.864048e-002 2.810662e+000 132 132 132
4.677136e-001 5.975010e-001 2.723199e+000 49 49 49
3.261927e-001 6.047264e-001 2.700286e+000 42 42 42
4.605530e-001 7.453296e-001 2.900281e+000 183 183 183
5.767895e-001 8.048135e-001 2.945995e+000 139 139 139
-1.247006e+000 4.551996e-001 4.975330e+000 109 109 109
-1.313447e+000 4.682260e-001 4.938923e+000 111 111 111
-1.313447e+000 4.682260e-001 4.938923e+000 111 111 111
1.067266e+000 -2.121035e+000 3.409956e+000 98 98 98
1.212640e+000 -1.991612e+000 3.319872e+000 48 48 48
1.198448e+000 -2.003637e+000 3.335629e+000 99 99 99
1.279828e+000 -1.918141e+000 3.272151e+000 37 37 37
1.214853e+000 -1.917429e+000 3.397416e+000 102 102 102
1.351767e+000 -1.793623e+000 3.295677e+000 45 45 45
1.279391e+000 -1.847353e+000 3.370444e+000 33 33 33
1.515830e+000 -1.611280e+000 3.181694e+000 100 100 100
1.084016e+000 -1.917423e+000 3.510480e+000 38 38 38
1.527841e+000 -1.578300e+000 3.187799e+000 40 40 40
9.359777e-001 -1.999403e+000 3.652007e+000 37 37 37
1.392439e+000 -1.612668e+000 3.318942e+000 31 31 31
1.464396e+000 -1.548179e+000 3.290415e+000 131 131 131
1.254478e+000 -1.684527e+000 3.441816e+000 50 50 50
1.340458e+000 -1.598278e+000 3.403164e+000 112 112 112
1.313780e+000 -1.586399e+000 3.448240e+000 108 108 108
1.114451e+000 -1.695706e+000 3.615285e+000 113 113 113
1.262673e+000 -1.162091e+000 3.263438e+000 166 166 166
9.131978e-001 -1.549226e+000 3.982852e+000 104 104 104
1.559059e+000 -4.284347e-001 2.654638e+000 138 138 138
1.920954e+000 -1.074577e-001 2.353422e+000 165 165 165
1.898499e+000 -2.041735e-002 2.428550e+000 112 112 112
1.574732e+000 -1.234609e-001 2.785976e+000 102 102 102
1.915891e+000 1.300482e-001 2.469222e+000 213 213 213
-3.678279e-001 2.521221e-001 2.217288e+000 179 179 179
7.904541e-001 1.693270e-001 2.638322e+000 145 145 145
8.179046e-001 2.044209e-001 2.641087e+000 138 138 138
7.979559e-001 2.177447e-001 2.655190e+000 215 215 215
1.831969e+000 2.933626e-001 2.677461e+000 155 155 155
-8.786784e-002 5.105262e-001 2.133560e+000 207 207 207
8.123687e-001 2.713426e-001 2.719725e+000 154 154 154
8.123687e-001 2.713426e-001 2.719725e+000 154 154 154
-4.114287e-001 6.492686e-001 2.198009e+000 162 162 162
-3.475901e-001 8.499625e-001 2.284883e+000 178 178 178
-3.669763e-001 8.670350e-001 2.296855e+000 214 214 214
-1.456423e+000 4.833385e-001 4.942772e+000 68 68 68
-1.364706e+000 4.974581e-001 4.961422e+000 97 97 97
-1.323651e+000 5.504760e-001 5.017758e+000 110 110 110
1.206477e+000 -1.939154e+000 3.376161e+000 85 85 85
1.655189e+000 -1.596896e+000 3.049202e+000 109 109 109
1.176679e+000 -1.924756e+000 3.421824e+000 39 39 39
1.529043e+000 -1.669112e+000 3.155070e+000 126 126 126
1.529043e+000 -1.669112e+000 3.155070e+000 126 126 126
7.451512e-001 -2.221028e+000 3.733528e+000 66 66 66
1.524065e+000 -1.627422e+000 3.162213e+000 36 36 36
1.361700e+000 -1.741652e+000 3.329060e+000 52 52 52
1.535486e+000 -1.585633e+000 3.177978e+000 104 104 104
1.535486e+000 -1.585633e+000 3.177978e+000 104 104 104
9.484871e-001 -1.971233e+000 3.645142e+000 82 82 82
7.739585e-001 -1.940323e+000 3.889861e+000 36 36 36
9.795394e-001 -1.776037e+000 3.724816e+000 43 43 43
9.485752e-001 -1.763698e+000 3.706690e+000 45 45 45
8.578780e-001 -1.836109e+000 3.808961e+000 91 91 91
9.773634e-001 -1.763078e+000 3.730694e+000 91 91 91
1.050335e+000 -1.674692e+000 3.692884e+000 96 96 96
1.248067e+000 -1.503386e+000 3.574789e+000 59 59 59
9.763938e-001 -1.619283e+000 3.821595e+000 60 60 60
1.714251e+000 -4.417924e-001 2.430484e+000 123 123 123
9.811299e-001 -1.537422e+000 3.881889e+000 98 98 98
1.443506e+000 -3.592553e-001 2.814453e+000 69 69 69
1.459985e+000 -2.858313e-001 2.850047e+000 136 136 136
1.904325e+000 9.668177e-002 2.486912e+000 221 221 221
1.916859e+000 1.416268e-001 2.482497e+000 136 136 136
7.993035e-001 1.822877e-001 2.591821e+000 119 119 119
7.993035e-001 1.822877e-001 2.591821e+000 119 119 119
-4.617624e-002 7.474583e-001 2.276814e+000 164 164 164
-1.711271e-001 9.549833e-001 2.403424e+000 146 146 146
-3.794461e-001 1.031670e+000 2.425053e+000 180 180 180
-1.356843e+000 4.263836e-001 4.947980e+000 101 101 101
6.054783e-001 3.315609e+000 -2.706749e+000 0 255 0
6.083525e-001 3.340899e+000 -2.749785e+000 255 255 0
-3.527755e-001 4.725780e+000 -3.128835e+000 255 0 0
-3.555562e-001 4.755400e+000 -3.169022e+000 255 255 0
