ply
format ascii 1.0
element face 0
property list uchar int vertex_indices
element vertex 886
property float x
property float y
property float z
property uchar diffuse_red
property uchar diffuse_green
property uchar diffuse_blue
end_header
3.293694e-001 5.052994e-001 -6.436933e+000 60 49 27
-8.879276e-001 1.792659e-001 -1.019967e+001 49 61 55
-8.879276e-001 1.792659e-001 -1.019967e+001 49 61 55
3.661380e-001 5.483677e-001 -6.463264e+000 84 68 45
-8.606187e-001 2.031748e-001 -1.018813e+001 178 178 180
-8.601466e-001 4.558641e-001 -9.955804e+000 71 65 32
3.710170e-001 6.729402e-001 -6.436155e+000 143 131 104
3.979765e-001 8.308443e-001 -6.392620e+000 88 74 47
-6.905533e-001 9.431721e-001 -1.003221e+001 72 59 55
1.174916e+001 2.997422e+000 -3.707379e+001 253 251 216
1.075967e-001 1.168090e+000 -1.001390e+001 180 158 89
1.821836e+000 1.723055e+000 -1.592316e+001 66 56 44
1.711656e-001 1.220284e+000 -9.954628e+000 57 48 32
1.155032e+001 4.181511e+000 -3.694342e+001 210 199 178
1.034527e+001 4.755282e+000 -3.776019e+001 250 245 220
4.393174e-001 1.091764e+000 -6.182041e+000 235 211 171
2.912762e+000 2.182574e+000 -1.216728e+001 73 31 5
2.912762e+000 2.182574e+000 -1.216728e+001 73 31 5
2.951323e+000 2.188989e+000 -1.204433e+001 250 202 153
-9.637525e-001 2.854083e+000 -1.404154e+001 40 21 1
2.923298e+000 2.454281e+000 -1.168497e+001 74 29 2
3.089196e+000 2.463377e+000 -1.140978e+001 36 43 46
3.089196e+000 2.463377e+000 -1.140978e+001 36 43 46
3.044143e+000 2.540448e+000 -1.161033e+001 245 205 149
2.999424e+000 2.581137e+000 -1.170565e+001 33 9 1
3.056423e+000 2.625776e+000 -1.161792e+001 247 203 139
2.677561e+000 2.485443e+000 -1.042737e+001 156 142 115
-3.574899e-002 1.481515e+000 -6.032891e+000 210 196 161
4.033627e-001 1.445859e+000 -5.883305e+000 152 121 75
3.757542e-001 1.435038e+000 -5.819311e+000 205 187 156
2.534534e-001 1.442124e+000 -5.829449e+000 98 86 63
3.740156e-001 -1.177902e-001 -6.609477e+000 120 113 89
3.054707e-001 1.502401e-003 -6.519984e+000 12 5 1
3.142559e-001 3.647669e-001 -6.456324e+000 120 107 88
3.412074e-001 3.891934e-001 -6.475008e+000 112 100 76
-7.288710e-001 9.379608e-002 -1.016439e+001 171 181 171
3.733819e-001 5.671650e-001 -6.455255e+000 157 141 114
-8.473802e-001 3.874182e-001 -1.002837e+001 179 178 171
3.681917e-001 6.340271e-001 -6.444273e+000 75 60 37
-6.925828e-001 9.616362e-001 -1.003655e+001 62 51 45
1.837897e+000 1.771112e+000 -1.598998e+001 54 47 41
8.519385e+000 4.183190e+000 -3.092038e+001 252 246 207
1.695740e-001 1.089700e+000 -6.425838e+000 59 39 6
1.622564e-001 1.097062e+000 -6.423127e+000 254 233 181
2.900807e+000 2.109407e+000 -1.211397e+001 245 180 123
3.020813e-001 1.096588e+000 -6.156281e+000 138 106 67
2.913669e+000 2.252585e+000 -1.221540e+001 252 225 177
2.938289e+000 2.300918e+000 -1.197050e+001 94 55 18
2.931159e+000 2.437191e+000 -1.168366e+001 218 170 124
2.969704e+000 2.592186e+000 -1.182551e+001 45 9 0
3.030125e+000 2.570935e+000 -1.166964e+001 53 20 0
3.080286e+000 2.554022e+000 -1.157833e+001 59 24 2
-1.905954e-001 2.355231e+000 -1.013336e+001 145 112 86
3.179153e-003 1.399193e+000 -6.130170e+000 242 218 181
4.731228e-002 1.386287e+000 -6.065558e+000 238 209 165
4.030872e-001 1.448593e+000 -5.881438e+000 213 188 147
1.364625e-001 1.452669e+000 -5.870740e+000 105 93 71
3.656713e-001 1.441573e+000 -5.813243e+000 107 102 84
2.014448e-001 1.452180e+000 -5.841393e+000 127 119 100
5.105862e-001 5.653403e-001 -6.373075e+000 21 20 24
-9.247625e-001 2.371708e-001 -1.013125e+001 79 68 28
3.361145e-001 6.690945e-001 -6.410450e+000 106 101 85
-2.788604e-001 5.509404e-001 -1.044185e+001 76 73 66
3.698897e-001 7.394709e-001 -6.421905e+000 154 140 114
3.282400e-001 7.467959e-001 -6.401712e+000 87 76 46
3.210227e-001 7.606813e-001 -6.410559e+000 113 105 86
2.963362e-001 1.009100e+000 -6.305998e+000 71 64 54
-7.610951e-001 1.445080e+000 -8.935750e+000 36 21 0
1.633096e-001 1.115789e+000 -6.253527e+000 120 95 58
2.602864e+000 2.267275e+000 -1.189029e+001 198 154 90
-1.165404e+000 2.869752e+000 -1.403868e+001 116 94 70
2.927266e+000 2.567709e+000 -1.177893e+001 235 195 149
5.341919e-001 4.017581e-001 -6.515353e+000 154 178 206
2.803868e-001 6.832578e-002 -6.524093e+000 16 15 13
1.095651e+001 9.974461e-001 -3.766573e+001 218 139 135
8.395889e+000 1.198680e+000 -3.838572e+001 202 145 147
8.632484e+000 3.421466e+000 -3.940094e+001 252 252 251
3.557219e-001 1.233831e-001 -6.558187e+000 67 59 41
5.377890e-001 1.956608e-001 -6.523326e+000 15 15 17
1.231675e+001 1.826616e+000 -3.667847e+001 156 149 134
9.748204e+000 2.020387e+000 -3.795000e+001 160 157 138
7.736246e+000 2.379288e+000 -3.799892e+001 172 174 171
1.053331e+001 2.911002e+000 -3.786573e+001 195 187 166
1.052955e+001 2.909621e+000 -3.784991e+001 195 187 166
9.887060e+000 4.476942e+000 -3.700179e+001 187 179 158
9.960970e+000 4.670372e+000 -3.859856e+001 171 163 142
9.960970e+000 4.670372e+000 -3.859856e+001 171 163 142
4.208627e-001 1.129952e+000 -6.161216e+000 245 218 164
4.346041e-001 -6.137224e-002 -6.581770e+000 13 9 10
4.371829e-001 -6.180719e-002 -6.584900e+000 13 9 10
4.852726e-001 9.148591e-002 -6.607227e+000 129 159 196
3.563738e-001 7.081174e-001 -6.423478e+000 67 58 41
3.523615e-001 7.695227e-001 -6.415168e+000 75 67 46
1.304517e+001 1.305794e+000 -3.680252e+001 254 255 253
8.497162e+000 2.624752e+000 -3.943601e+001 251 255 253
9.626617e+000 4.098274e+000 -3.705146e+001 255 253 254
2.548524e+000 2.270709e+000 -1.195288e+001 240 191 128
3.183962e-001 -6.567176e-002 -6.551740e+000 7 7 10
3.584031e-001 2.022518e-001 -6.535543e+000 46 37 18
8.334740e+000 1.677041e+000 -3.900529e+001 254 255 250
9.347894e+000 1.862903e+000 -3.771172e+001 223 211 188
1.104414e+001 3.773328e+000 -3.690731e+001 193 207 211
2.786660e-001 1.088329e+000 -6.276829e+000 32 25 17
2.184224e+000 2.361835e+000 -1.212934e+001 215 177 126
5.109711e-001 1.166922e+000 -6.192836e+000 172 140 99
5.865242e-001 1.372844e+000 -5.969083e+000 156 124 85
3.636232e-001 -1.214161e-001 -6.607723e+000 57 50 43
3.781355e-001 -8.590410e-002 -6.612424e+000 114 102 75
4.477654e-001 1.384437e-002 -6.551841e+000 9 8 5
4.411391e-001 1.129627e-001 -6.557332e+000 126 114 90
2.295187e-001 1.685437e-001 -6.452690e+000 114 99 73
3.179390e-001 5.341843e-001 -6.436147e+000 77 67 48
-1.104428e+000 3.689651e-001 -1.004542e+001 123 109 43
1.113389e+001 7.478249e-001 -3.760347e+001 248 139 127
1.113389e+001 7.478249e-001 -3.760347e+001 248 139 127
1.151189e+001 3.499530e+000 -3.695076e+001 181 168 145
5.845261e+000 2.114177e+000 -2.042903e+001 181 168 145
9.917401e+000 3.801439e+000 -3.652199e+001 208 219 224
8.306469e+000 4.291657e+000 -3.850988e+001 254 255 250
4.015642e-001 1.028424e+000 -6.145437e+000 217 200 149
2.565293e+000 2.417211e+000 -1.197669e+001 34 16 13
3.765624e-001 -8.067129e-002 -6.604620e+000 119 109 82
4.258366e-001 4.440077e-002 -6.556819e+000 128 117 89
4.394862e-001 5.676759e-001 -6.502766e+000 170 185 197
3.353038e-001 6.888165e-001 -6.414349e+000 117 104 70
1.351360e+001 1.092268e+000 -3.755725e+001 170 144 130
1.151689e+001 1.871592e+000 -3.729838e+001 157 151 136
1.291768e+001 2.053936e+000 -3.749545e+001 217 213 188
1.146846e+001 2.155435e+000 -3.806021e+001 210 204 179
1.111779e+001 2.172496e+000 -3.805786e+001 213 212 182
8.617003e+000 2.902307e+000 -3.782791e+001 252 255 234
8.866244e+000 2.931625e+000 -3.806858e+001 206 197 175
8.866244e+000 2.931625e+000 -3.806858e+001 206 197 175
8.650563e+000 4.182263e+000 -3.964321e+001 198 192 165
1.251364e+001 4.652749e+000 -3.858633e+001 192 175 151
4.019953e-001 1.039638e+000 -6.145652e+000 152 133 90
4.175466e-001 1.059954e+000 -6.148087e+000 68 55 38
3.989307e-001 1.076959e+000 -6.144074e+000 54 38 23
2.080988e+000 2.294282e+000 -1.222515e+001 53 27 14
2.080988e+000 2.294282e+000 -1.222515e+001 53 27 14
2.079630e+000 2.293803e+000 -1.222142e+001 53 27 14
2.367537e+000 2.284590e+000 -1.202385e+001 246 203 134
2.201797e+000 2.352802e+000 -1.210636e+001 215 165 106
2.206563e+000 2.397248e+000 -1.206806e+001 82 47 32
2.216601e+000 2.406461e+000 -1.211647e+001 82 47 32
2.124049e+000 2.458538e+000 -1.208429e+001 95 47 16
2.124049e+000 2.458538e+000 -1.208429e+001 95 47 16
2.071120e+000 2.525006e+000 -1.210441e+001 46 27 33
2.071120e+000 2.525006e+000 -1.210441e+001 46 27 33
-2.254448e+000 2.641228e+000 -1.251488e+001 62 52 27
1.840465e-001 1.366078e+000 -5.953311e+000 218 186 139
7.218654e-001 1.480987e+000 -5.970669e+000 141 133 110
3.764061e-001 4.798349e-002 -6.578238e+000 133 122 94
4.434782e-001 1.108568e-001 -6.557391e+000 117 105 86
-8.423575e-001 1.854936e-001 -1.017853e+001 64 51 26
-9.142144e-001 2.386415e-001 -1.013371e+001 66 47 4
-1.323002e+000 4.966523e-001 -9.502091e+000 83 65 30
3.614538e-001 7.753281e-001 -6.412423e+000 92 80 56
1.051047e+001 1.259605e+000 -3.706749e+001 179 100 92
1.005353e+001 1.342190e+000 -3.914277e+001 242 117 116
9.359179e+000 1.344962e+000 -3.760159e+001 192 104 98
9.587957e+000 2.251537e+000 -3.810338e+001 221 214 195
1.068795e+001 2.778903e+000 -3.758043e+001 168 158 136
1.068944e+001 2.783797e+000 -3.758889e+001 168 158 136
8.160518e+000 2.954876e+000 -3.898851e+001 210 191 166
1.069068e+001 3.099957e+000 -3.753565e+001 205 194 176
1.043239e+001 3.103106e+000 -3.739572e+001 200 189 171
8.638621e+000 3.777861e+000 -3.851407e+001 205 194 167
8.368745e+000 4.342757e+000 -3.727233e+001 225 223 196
8.879389e+000 4.488513e+000 -3.785487e+001 215 195 169
1.254852e+001 4.439929e+000 -3.679164e+001 155 147 135
9.004009e+000 5.358985e+000 -3.814374e+001 200 181 150
4.703613e-001 1.097792e+000 -6.162855e+000 121 94 55
2.142109e+000 2.328915e+000 -1.216867e+001 164 102 41
2.929981e+000 2.277820e+000 -1.185604e+001 235 187 125
2.023792e+000 2.355093e+000 -1.214754e+001 97 52 11
2.050760e+000 2.416414e+000 -1.219427e+001 246 196 137
2.932757e+000 2.364228e+000 -1.187360e+001 36 6 0
2.336352e+000 2.409907e+000 -1.203039e+001 228 180 105
2.021902e+000 2.474576e+000 -1.210325e+001 22 9 4
2.019071e+000 2.471040e+000 -1.208787e+001 22 9 4
-1.301788e+000 2.160271e+000 -9.419643e+000 66 54 32
-9.938578e-001 2.302038e+000 -9.658873e+000 13 11 22
6.030490e-001 1.464602e+000 -5.875813e+000 72 64 43
3.533488e-001 1.451362e+000 -5.812390e+000 101 90 68
3.567382e-001 -8.842327e-002 -6.603877e+000 55 51 39
3.663372e-001 2.254268e-001 -6.537917e+000 66 51 30
3.165433e-001 4.330298e-001 -6.450615e+000 67 60 41
2.709327e-001 5.009017e-001 -6.389381e+000 104 93 72
2.709327e-001 5.009017e-001 -6.389381e+000 104 93 72
4.946881e-001 5.420641e-001 -6.429112e+000 115 106 78
3.754047e-001 5.888047e-001 -6.456124e+000 153 138 107
3.259497e-001 6.464925e-001 -6.408617e+000 59 47 23
-9.460516e-001 5.834221e-001 -9.492655e+000 42 46 31
3.323886e-001 7.010558e-001 -6.410548e+000 121 112 79
3.707308e-001 7.268677e-001 -6.428494e+000 148 134 108
1.077251e+001 6.926536e-001 -3.679700e+001 249 117 124
9.820924e+000 7.938729e-001 -3.819833e+001 211 111 115
9.547271e+000 8.022862e-001 -3.722143e+001 211 111 115
1.322434e+001 9.190040e-001 -3.678401e+001 253 240 215
9.808478e+000 9.020428e-001 -3.746554e+001 229 120 130
1.161155e+001 2.161240e+000 -3.752860e+001 218 213 190
3.728000e-001 8.690958e-001 -6.394312e+000 134 129 97
9.887505e+000 2.859285e+000 -3.819566e+001 188 175 150
-5.780379e-002 1.116626e+000 -1.039716e+001 59 55 39
8.347828e+000 2.925605e+000 -3.838388e+001 211 198 171
8.187575e+000 2.928103e+000 -3.820679e+001 206 199 173
1.306541e+001 3.716539e+000 -3.645854e+001 248 254 248
9.243893e+000 3.939999e+000 -3.778667e+001 206 212 210
9.970767e+000 3.988499e+000 -3.768306e+001 194 206 215
1.150137e+001 4.238572e+000 -3.730170e+001 235 209 189
1.222610e+001 4.269638e+000 -3.691218e+001 253 239 210
1.133733e+001 4.246467e+000 -3.650927e+001 255 242 221
1.245147e+001 4.456701e+000 -3.709555e+001 177 158 135
1.217875e+001 4.452980e+000 -3.696574e+001 201 180 157
1.150086e+001 4.559341e+000 -3.770344e+001 189 164 141
1.085597e+001 4.724006e+000 -3.891662e+001 192 165 149
9.905350e+000 4.811446e+000 -3.790577e+001 195 181 163
2.316077e+000 2.257256e+000 -1.208818e+001 252 213 154
1.993096e+000 2.266106e+000 -1.215639e+001 100 49 11
2.912100e+000 2.288204e+000 -1.191830e+001 79 36 3
2.200828e+000 2.376495e+000 -1.225991e+001 249 205 149
2.288765e+000 2.340884e+000 -1.207074e+001 254 198 136
2.372363e+000 2.345425e+000 -1.202363e+001 255 227 159
2.677665e+000 2.333128e+000 -1.189209e+001 230 181 119
1.992245e+000 2.398037e+000 -1.207059e+001 238 183 122
-2.178841e+000 2.661336e+000 -1.255605e+001 77 69 48
3.537147e-001 1.443722e+000 -5.814606e+000 160 153 134
2.990405e-001 1.454753e+000 -5.818290e+000 101 91 66
4.600841e-001 1.168040e-002 -6.560089e+000 126 113 93
2.805043e-001 3.760448e-001 -6.491412e+000 141 131 104
3.190727e-001 5.139676e-001 -6.434059e+000 105 98 79
-7.848618e-001 1.367852e-001 -1.009884e+001 55 42 17
-8.237757e-001 1.465185e-001 -1.013209e+001 48 52 50
-1.175277e+000 5.034875e-001 -9.849741e+000 87 94 62
-1.175277e+000 5.034875e-001 -9.849741e+000 87 94 62
4.102571e-001 7.300415e-001 -6.411168e+000 127 116 97
2.534450e-001 7.791138e-001 -6.320914e+000 109 98 77
3.238931e-001 8.033401e-001 -6.398192e+000 84 73 45
1.243783e+001 2.071203e+000 -3.656780e+001 217 206 185
1.292018e+001 2.750481e+000 -3.659296e+001 207 204 184
3.454335e-001 9.007993e-001 -6.372015e+000 100 94 82
-1.128545e+000 1.050022e+000 -8.658018e+000 183 143 90
1.127096e+001 3.610489e+000 -3.734291e+001 246 251 254
8.298097e+000 3.701313e+000 -3.786906e+001 202 195 166
1.217049e+001 3.775633e+000 -3.675214e+001 250 253 253
9.133415e+000 4.476908e+000 -3.812294e+001 203 184 158
1.023337e+001 4.526862e+000 -3.710021e+001 189 169 145
8.961526e+000 5.387513e+000 -3.844387e+001 246 240 192
2.074008e+000 2.254242e+000 -1.219192e+001 247 197 155
2.136894e+000 2.292701e+000 -1.222054e+001 187 132 64
1.652188e+000 2.542235e+000 -1.315394e+001 96 86 50
1.976712e+000 2.354195e+000 -1.209446e+001 230 177 121
2.004796e+000 2.432443e+000 -1.203995e+001 246 205 149
2.073489e+000 2.459902e+000 -1.205115e+001 89 44 20
2.053137e+000 2.482450e+000 -1.207546e+001 215 183 136
2.091782e+000 2.505406e+000 -1.208920e+001 68 35 15
2.091782e+000 2.505406e+000 -1.208920e+001 68 35 15
2.101797e+000 2.513379e+000 -1.206716e+001 240 199 144
2.543789e+000 2.603522e+000 -1.182956e+001 225 154 106
-1.033567e+000 2.135852e+000 -9.720307e+000 41 11 0
-1.309970e+000 2.172891e+000 -9.409173e+000 228 213 190
1.111035e-001 1.448742e+000 -5.884363e+000 211 197 168
2.279407e-001 1.438264e+000 -5.835370e+000 207 194 162
3.595525e-001 1.438263e+000 -5.814766e+000 120 110 87
2.584196e-001 1.442906e+000 -5.825435e+000 162 149 132
3.328862e-001 -1.333398e-001 -6.586945e+000 48 56 55
3.738531e-001 -4.590439e-003 -6.587685e+000 146 132 105
3.695157e-001 5.819906e-002 -6.572608e+000 68 55 36
3.578707e-001 2.096664e-001 -6.529648e+000 102 87 68
2.998635e-001 5.371701e-001 -6.411703e+000 95 85 76
3.337454e-001 5.409586e-001 -6.436667e+000 103 94 75
-8.655584e-001 1.748195e-001 -1.017453e+001 175 178 176
3.318611e-001 6.154634e-001 -6.424470e+000 62 50 26
3.494702e-001 7.505685e-001 -6.406163e+000 47 40 14
1.275872e+001 1.528256e+000 -3.683194e+001 207 201 176
1.301978e+001 2.463844e+000 -3.674098e+001 205 205 177
-1.083876e+000 9.510726e-001 -8.661425e+000 179 150 107
3.436579e-001 8.627332e-001 -6.377104e+000 63 57 33
1.258179e+001 2.741652e+000 -3.674511e+001 254 250 217
1.222358e+001 2.836889e+000 -3.710529e+001 212 205 185
9.786705e+000 2.948458e+000 -3.788037e+001 253 250 227
1.167054e+001 3.038001e+000 -3.663342e+001 209 209 175
3.790301e-001 9.210983e-001 -6.385434e+000 157 145 120
3.785554e-001 9.214026e-001 -6.387904e+000 157 145 120
1.011400e+001 3.516422e+000 -3.757463e+001 246 252 254
1.223039e+001 3.639524e+000 -3.694690e+001 189 201 196
1.153878e+001 4.357038e+000 -3.736584e+001 226 199 180
4.117701e-001 1.013438e+000 -6.147276e+000 196 183 150
1.105897e-001 1.074377e+000 -6.453282e+000 82 66 39
1.126867e-001 1.082283e+000 -6.443499e+000 237 218 169
1.648521e-001 1.090404e+000 -6.421069e+000 212 191 149
4.051811e-001 1.058650e+000 -6.141892e+000 225 210 171
1.947287e+000 2.314499e+000 -1.223817e+001 193 130 58
2.077509e+000 2.330081e+000 -1.220837e+001 200 159 119
2.287914e+000 2.307581e+000 -1.206937e+001 97 43 2
2.361038e+000 2.300704e+000 -1.200256e+001 251 212 153
2.252801e+000 2.356771e+000 -1.201418e+001 254 215 142
2.035251e+000 2.425483e+000 -1.200772e+001 208 155 104
2.245505e+000 2.453973e+000 -1.209908e+001 47 13 0
2.278480e+000 2.441669e+000 -1.203992e+001 103 57 8
2.427961e+000 2.476212e+000 -1.200733e+001 253 221 152
-2.559651e+000 2.595778e+000 -1.258238e+001 114 101 87
-2.346459e+000 2.610056e+000 -1.247270e+001 97 82 54
-2.180626e+000 2.682443e+000 -1.261622e+001 77 70 52
5.316632e-001 1.253007e+000 -6.190661e+000 215 184 148
-1.643179e+000 2.440354e+000 -1.087200e+001 21 10 2
-1.316328e+000 2.097984e+000 -9.411449e+000 209 194 185
-1.316328e+000 2.097984e+000 -9.411449e+000 209 194 185
5.355725e-001 1.365129e+000 -5.935300e+000 229 200 156
5.164879e-001 1.443404e+000 -5.835911e+000 180 168 144
1.927203e-001 1.445420e+000 -5.845111e+000 186 175 149
2.282101e-001 1.442335e+000 -5.833889e+000 94 84 58
1.250698e-001 1.461887e+000 -5.872518e+000 147 137 113
5.168567e-001 1.456073e+000 -5.834648e+000 158 148 122
3.948713e-001 1.448000e+000 -5.808558e+000 163 157 134
3.336879e-001 7.166945e-002 -6.544670e+000 61 55 31
3.729714e-001 6.956351e-002 -6.570748e+000 141 129 104
3.730605e-001 1.429530e-001 -6.556653e+000 142 131 103
3.215571e-001 2.364995e-001 -6.498660e+000 110 99 81
3.089558e-001 2.522533e-001 -6.479760e+000 112 99 80
3.326232e-001 4.336456e-001 -6.463928e+000 66 58 37
3.693601e-001 5.058086e-001 -6.473416e+000 81 65 32
4.151761e-001 6.198665e-001 -6.434586e+000 156 142 113
3.862835e-001 7.571123e-001 -6.416506e+000 164 150 123
3.543377e-001 7.670934e-001 -6.409934e+000 95 88 64
3.865966e-001 7.914783e-001 -6.409664e+000 164 150 123
2.621317e-001 8.209109e-001 -6.317792e+000 100 88 73
8.132375e+000 2.836642e+000 -3.814779e+001 254 250 222
1.976105e+000 1.685191e+000 -1.606421e+001 59 51 40
1.107960e+001 3.453082e+000 -3.714905e+001 249 253 255
1.107960e+001 3.453082e+000 -3.714905e+001 249 253 255
1.675811e+000 1.715622e+000 -1.610261e+001 46 41 35
1.048268e+001 3.898845e+000 -3.759479e+001 252 255 253
1.127572e+001 4.720859e+000 -3.718130e+001 255 253 231
9.916365e+000 5.258190e+000 -3.799965e+001 193 185 152
9.711144e+000 5.383593e+000 -3.782472e+001 218 212 150
2.661282e-001 1.038075e+000 -6.276527e+000 128 119 107
1.044147e-001 1.086704e+000 -6.447330e+000 202 181 151
1.679665e-001 1.094329e+000 -6.422297e+000 97 73 35
5.061902e-001 1.087359e+000 -6.192926e+000 236 217 194
2.302990e+000 2.236307e+000 -1.204167e+001 254 216 157
4.150718e-001 1.114264e+000 -6.159770e+000 250 221 179
2.001438e+000 2.315652e+000 -1.215002e+001 254 223 164
2.983838e+000 2.339499e+000 -1.181314e+001 92 49 9
2.317056e+000 2.381572e+000 -1.204413e+001 252 212 140
2.449602e+000 2.457173e+000 -1.203419e+001 250 210 153
1.993847e+000 2.608978e+000 -1.210880e+001 255 209 139
1.981299e-001 1.450928e+000 -5.842047e+000 93 84 67
3.619709e-001 1.444725e+000 -5.814187e+000 173 165 144
3.583995e-001 1.452671e+000 -5.809746e+000 101 91 66
5.230775e-001 4.057294e-001 -6.474214e+000 157 176 206
3.646444e-001 1.304657e+000 -5.918259e+000 203 164 117
4.905077e-001 4.702085e-001 -6.455296e+000 163 181 205
4.905077e-001 4.702085e-001 -6.455296e+000 163 181 205
1.435877e+001 7.230874e-001 -3.596595e+001 232 111 108
4.518022e-001 8.920100e-002 -6.565145e+000 17 14 15
3.344690e-001 -7.024772e-002 -6.572552e+000 9 7 12
3.534293e-001 7.687558e-001 -6.409941e+000 91 76 55
4.351289e-001 1.738858e-001 -6.533423e+000 7 4 4
1.468783e+001 1.196020e+000 -3.588898e+001 254 255 252
1.281601e+001 4.589286e+000 -3.526696e+001 250 253 248
1.351830e-001 2.422168e+000 -1.026458e+001 31 24 9
1.423973e+001 9.500842e-001 -3.519998e+001 243 113 120
1.315883e+001 3.049099e+000 -3.595412e+001 253 252 255
1.323654e+001 3.340312e+000 -3.621535e+001 187 183 164
1.231287e+001 3.513669e+000 -3.713025e+001 241 244 243
1.348655e+001 3.629514e+000 -3.587693e+001 195 214 225
1.185118e+001 3.716946e+000 -3.645820e+001 243 253 253
2.176943e-001 1.293831e+000 -9.861744e+000 57 40 13
1.228049e+000 2.200044e+000 -1.599249e+001 53 44 14
1.228049e+000 2.200044e+000 -1.599249e+001 53 44 14
7.585561e-002 2.392948e+000 -1.014372e+001 23 19 13
2.541320e-001 1.359677e+000 -5.926622e+000 216 182 134
1.948077e-001 1.439611e+000 -5.844478e+000 200 176 149
2.178283e+001 -2.779051e+000 -3.692318e+001 253 244 211
2.195299e+001 -2.644341e+000 -3.789253e+001 192 154 115
2.195299e+001 -2.644341e+000 -3.789253e+001 192 154 115
3.773473e-001 6.367121e-001 -6.444924e+000 156 142 113
3.531892e+000 7.287077e-001 -1.388865e+001 253 113 118
3.531892e+000 7.287077e-001 -1.388865e+001 253 113 118
1.326181e+001 2.528305e+000 -3.644067e+001 195 179 166
1.540133e-001 1.134098e+000 -9.913743e+000 74 63 21
1.763773e+000 1.631258e+000 -1.579100e+001 73 61 52
3.910483e+000 1.721801e+000 -1.606540e+001 238 242 243
1.318379e+001 3.343379e+000 -3.548126e+001 234 239 234
1.421435e+001 3.453534e+000 -3.654311e+001 252 252 229
1.304257e+001 3.432409e+000 -3.620359e+001 249 250 252
2.608056e-001 1.339113e+000 -9.880906e+000 53 47 36
1.196744e+000 2.068339e+000 -1.610013e+001 126 110 69
1.278206e+000 2.147903e+000 -1.602860e+001 204 192 172
8.334384e+000 4.223368e+000 -3.055864e+001 140 106 53
3.795630e-001 1.117884e+000 -6.158864e+000 236 196 144
5.415673e-001 2.453473e+000 -1.034474e+001 163 129 86
3.733801e-001 1.246680e+000 -5.930661e+000 223 175 133
1.563774e-001 1.369941e+000 -5.968720e+000 203 169 123
2.001157e-001 1.366327e+000 -5.947020e+000 201 169 124
-3.067223e-002 1.493619e+000 -6.015586e+000 120 106 79
4.115947e-001 -8.344826e-002 -6.600944e+000 116 106 85
2.210187e+001 -2.399660e+000 -3.871083e+001 97 77 68
4.828005e-002 1.093124e+000 -1.022007e+001 50 42 19
1.396537e+001 3.360996e+000 -3.556579e+001 182 175 156
1.396537e+001 3.360996e+000 -3.556579e+001 182 175 156
1.396405e+001 3.596144e+000 -3.551148e+001 196 188 165
1.396405e+001 3.596144e+000 -3.551148e+001 196 188 165
1.105048e+000 2.073583e+000 -1.608529e+001 203 190 178
1.102470e+000 2.132958e+000 -1.605002e+001 131 115 75
1.102470e+000 2.132958e+000 -1.605002e+001 131 115 75
2.874064e+000 1.501951e+000 -8.721489e+000 49 29 16
4.405066e-001 1.094001e+000 -6.148992e+000 129 96 63
3.803240e-001 1.093604e+000 -6.139390e+000 129 92 50
2.131755e-002 2.296769e+000 -1.018204e+001 31 21 19
9.894509e-002 2.375673e+000 -1.018265e+001 186 173 152
9.894509e-002 2.375673e+000 -1.018265e+001 186 173 152
4.329346e-001 1.440469e+000 -5.816227e+000 131 115 90
2.762002e-001 1.453468e+000 -5.821277e+000 95 82 63
1.687053e-001 1.460433e+000 -5.850910e+000 101 89 63
4.408633e-001 7.889096e-002 -6.553211e+000 115 108 79
2.211405e+001 -1.777068e+000 -3.859557e+001 84 65 56
2.342547e-001 7.415140e-001 -6.309237e+000 66 51 30
1.402607e+001 1.089821e+000 -3.715404e+001 198 197 193
6.744544e-002 2.291208e+000 -1.019221e+001 184 167 149
7.073207e-002 2.331587e+000 -1.017802e+001 157 150 147
7.073207e-002 2.331587e+000 -1.017802e+001 157 150 147
3.532034e-001 1.438153e+000 -5.815860e+000 121 109 86
3.467321e-001 1.441161e+000 -5.814767e+000 157 144 125
2.282250e-001 1.443052e+000 -5.835039e+000 103 88 64
3.531730e-001 1.451689e+000 -5.812305e+000 97 84 66
4.329332e-001 -5.504533e-002 -6.587765e+000 16 9 4
4.259479e-001 1.062766e-001 -6.553930e+000 115 104 81
2.326556e-001 2.873473e-001 -6.408685e+000 115 102 85
4.809831e-001 5.436647e-001 -6.429274e+000 124 117 96
2.235906e+001 -2.977875e+000 -3.933938e+001 70 62 56
2.208981e+001 -2.019230e+000 -3.857361e+001 108 91 66
2.245559e+001 -1.911185e+000 -3.928664e+001 223 207 197
6.969687e-002 1.078906e+000 -1.021893e+001 114 111 94
6.969687e-002 1.078906e+000 -1.021893e+001 114 111 94
1.320455e+001 2.649388e+000 -3.598113e+001 240 234 207
1.809387e+000 1.688745e+000 -1.591015e+001 244 236 224
1.402099e+001 3.231084e+000 -3.589660e+001 253 242 215
1.138031e+001 3.638684e+000 -3.763332e+001 248 252 251
1.275234e+001 3.773577e+000 -3.639853e+001 204 212 217
2.456017e-001 1.382554e+000 -9.876346e+000 169 143 80
3.959914e-001 1.033883e+000 -6.147589e+000 230 206 162
2.494316e-001 1.065824e+000 -6.259369e+000 123 113 101
4.323939e-001 1.065599e+000 -6.131349e+000 181 163 141
2.548321e+000 2.093715e+000 -1.224976e+001 89 51 18
2.805318e+000 2.324260e+000 -1.185538e+001 188 123 55
3.646741e-001 1.250944e+000 -6.122647e+000 52 11 0
4.095791e-002 2.337789e+000 -1.017756e+001 142 133 126
3.437858e-001 1.009325e+000 -5.009448e+000 180 166 140
6.798066e-002 1.470718e+000 -6.018844e+000 197 164 119
3.019178e-003 1.469351e+000 -5.978523e+000 234 213 182
4.082185e-001 1.440167e+000 -5.813680e+000 126 112 86
5.820862e-002 1.467657e+000 -5.920720e+000 116 98 74
5.820734e-002 1.467529e+000 -5.920869e+000 116 98 74
1.323818e-001 1.455939e+000 -5.870073e+000 156 143 126
3.298685e-001 5.727695e-001 -6.446074e+000 120 111 91
1.391567e+001 1.831800e+000 -3.340821e+001 196 192 186
1.292946e-002 1.071542e+000 -1.024899e+001 58 48 39
1.384286e+001 3.192323e+000 -3.534045e+001 240 229 202
3.058313e-001 9.333472e-001 -6.379519e+000 135 131 113
1.014660e+001 3.572116e+000 -3.823610e+001 249 250 250
1.351637e+001 3.421827e+000 -3.580589e+001 204 211 205
1.135490e+001 3.726891e+000 -3.764717e+001 200 205 208
1.313202e+001 3.753441e+000 -3.632882e+001 196 207 213
2.936092e+000 1.416505e+000 -1.042036e+001 51 34 9
2.809422e+000 1.294203e+000 -8.630230e+000 151 120 77
1.323534e+000 2.208191e+000 -1.599030e+001 136 118 94
1.386310e-001 1.121839e+000 -6.450033e+000 70 46 18
2.641885e+000 2.269563e+000 -1.183848e+001 245 190 134
3.544072e+000 2.184202e+000 -9.594318e+000 104 88 54
3.550875e-001 1.258949e+000 -6.124905e+000 255 228 175
2.490257e-001 1.260535e+000 -5.949072e+000 255 238 197
2.418690e-001 1.260938e+000 -5.951037e+000 255 228 193
-1.495017e-001 1.642489e+000 -6.634690e+000 114 98 73
3.865135e-001 1.438735e+000 -5.811926e+000 112 100 82
8.767601e-002 1.455012e+000 -5.898974e+000 117 97 72
3.934055e-001 1.441765e+000 -5.814683e+000 105 93 69
2.533998e-001 1.442318e+000 -5.828198e+000 103 90 69
2.536032e-001 1.442313e+000 -5.828497e+000 103 90 69
-1.796994e-001 1.363252e+000 -5.551591e+000 219 199 163
2.042594e-001 2.826245e-001 -6.422782e+000 68 50 28
2.222160e+001 -2.973238e+000 -3.719855e+001 176 160 133
2.186020e+001 -1.983918e+000 -3.714403e+001 251 233 182
3.793144e-001 6.333487e-001 -6.445962e+000 179 165 137
4.123916e-001 6.425098e-001 -6.429870e+000 158 143 117
4.159256e-001 6.671099e-001 -6.426106e+000 19 11 0
1.308088e+001 2.446864e+000 -3.662163e+001 208 207 187
1.261251e+001 2.490220e+000 -3.698222e+001 212 208 196
1.128494e+001 2.726065e+000 -3.805018e+001 204 190 167
1.209042e+001 2.787841e+000 -3.713849e+001 218 214 190
1.209042e+001 2.787841e+000 -3.713849e+001 218 214 190
-8.167293e-002 1.186732e+000 -9.477873e+000 192 185 161
1.300797e+001 3.340548e+000 -3.616847e+001 255 254 255
3.646489e-001 9.605318e-001 -6.376406e+000 91 81 69
3.737340e-001 9.629318e-001 -6.380296e+000 152 141 115
2.474638e-001 1.342081e+000 -9.919922e+000 54 45 41
1.190634e+001 4.304420e+000 -3.735464e+001 255 239 219
1.016429e+001 4.269074e+000 -3.028625e+001 248 230 180
8.604609e-002 1.457182e+000 -5.898564e+000 177 159 135
1.398557e-001 1.449808e+000 -5.866980e+000 191 176 153
2.938481e-001 1.442371e+000 -5.819696e+000 204 190 163
1.892165e-001 1.446251e+000 -5.845162e+000 128 111 83
4.329455e-001 1.810771e-002 -6.570227e+000 7 6 1
1.498901e+001 -4.179600e+000 -1.911536e+001 132 128 125
-5.766783e-003 1.485372e+000 -5.986751e+000 117 110 84
1.371444e+001 -4.123644e+000 -1.837465e+001 249 238 158
1.407356e+001 -3.733344e+000 -1.958306e+001 91 64 44
1.447254e+001 -3.492513e+000 -1.858014e+001 80 70 57
1.447254e+001 -3.492513e+000 -1.858014e+001 80 70 57
1.447254e+001 -3.492513e+000 -1.858014e+001 80 70 57
1.392109e+001 -3.060237e+000 -1.799261e+001 229 221 191
1.392109e+001 -3.060237e+000 -1.799261e+001 229 221 191
1.424285e+001 -3.228592e+000 -1.963216e+001 93 70 55
1.691421e-001 1.320425e+000 -6.245119e+000 179 138 84
4.403568e-002 1.391088e+000 -6.069555e+000 192 164 117
4.403568e-002 1.391088e+000 -6.069555e+000 192 164 117
5.233518e-001 2.010206e-001 -6.516488e+000 14 12 8
1.406952e+001 -4.373100e+000 -1.939814e+001 255 241 215
1.428293e+001 -4.420038e+000 -1.985518e+001 135 130 129
1.398745e+001 -3.905262e+000 -1.856514e+001 254 239 158
3.679938e-001 1.084533e+000 -6.152334e+000 251 225 180
2.261448e+000 2.250306e+000 -1.204858e+001 237 197 135
2.253325e+000 2.364440e+000 -1.205386e+001 254 208 144
2.197645e+000 2.413361e+000 -1.207170e+001 69 38 18
2.197645e+000 2.413361e+000 -1.207170e+001 69 38 18
2.197645e+000 2.413361e+000 -1.207170e+001 69 38 18
2.188115e+000 2.632083e+000 -1.177788e+001 235 216 184
1.416523e-002 1.477469e+000 -5.962552e+000 140 128 106
5.109826e-001 -2.106544e-002 -6.549864e+000 106 96 71
1.383204e+001 -2.613556e+000 -1.770140e+001 125 116 96
2.053617e+000 2.234502e+000 -1.223582e+001 248 189 121
4.907072e-002 1.403399e+000 -6.057903e+000 248 216 165
-5.850865e-002 1.493353e+000 -6.064210e+000 97 85 69
4.559804e-001 2.151570e-002 -6.557176e+000 116 104 74
2.218753e+000 2.264856e+000 -1.232831e+001 33 8 7
2.031788e+000 2.311247e+000 -1.218985e+001 224 179 115
2.202268e+000 2.354547e+000 -1.212853e+001 229 192 127
2.205092e+000 2.399830e+000 -1.208960e+001 59 34 12
2.013007e+000 2.468655e+000 -1.207825e+001 25 9 5
2.072693e+000 2.540339e+000 -1.202679e+001 195 144 68
2.104575e+000 2.528209e+000 -1.195044e+001 204 164 102
2.137034e+000 2.585908e+000 -1.203599e+001 84 39 18
8.916997e-003 1.469263e+000 -6.114259e+000 190 161 117
8.916997e-003 1.469263e+000 -6.114259e+000 190 161 117
2.027666e-001 1.446496e+000 -5.841512e+000 108 100 79
7.378728e-003 1.468402e+000 -5.971030e+000 216 200 165
1.428984e+001 -4.315667e+000 -1.839333e+001 167 158 151
1.428984e+001 -4.315667e+000 -1.839333e+001 167 158 151
1.437208e+001 -4.433707e+000 -1.949897e+001 101 94 79
1.437208e+001 -4.433707e+000 -1.949897e+001 101 94 79
1.444142e+001 -4.330073e+000 -2.014601e+001 246 226 202
1.424075e+001 -4.049981e+000 -1.829627e+001 133 118 95
1.423487e+001 -3.778010e+000 -1.988984e+001 68 46 44
1.399182e+001 -3.427920e+000 -1.796686e+001 146 130 107
1.399182e+001 -3.427920e+000 -1.796686e+001 146 130 107
1.425705e+001 -3.228957e+000 -1.820888e+001 243 229 202
1.401814e+001 -3.183803e+000 -1.827436e+001 133 115 93
1.401814e+001 -3.183803e+000 -1.827436e+001 133 115 93
1.990157e+000 2.267125e+000 -1.216324e+001 81 34 2
2.146174e+000 2.335912e+000 -1.220978e+001 156 92 30
2.146174e+000 2.335912e+000 -1.220978e+001 156 92 30
2.102845e+000 2.359013e+000 -1.218666e+001 238 205 147
2.373098e+000 2.384696e+000 -1.209955e+001 195 133 60
2.373098e+000 2.384696e+000 -1.209955e+001 195 133 60
1.915277e+000 2.388381e+000 -1.200263e+001 234 198 134
2.116213e+000 2.448384e+000 -1.203669e+001 98 52 8
1.597868e-001 1.220128e+000 -6.295509e+000 191 158 112
2.126685e+000 2.545656e+000 -1.192139e+001 101 64 38
2.249570e+000 2.578465e+000 -1.202603e+001 227 180 113
2.103244e+000 2.606558e+000 -1.202140e+001 191 145 87
2.090303e+000 2.633963e+000 -1.197469e+001 89 44 21
4.605680e-002 1.476097e+000 -6.043484e+000 197 166 119
-3.952872e-002 1.483768e+000 -6.027266e+000 106 90 65
4.675609e-002 1.464641e+000 -5.932742e+000 134 119 88
3.242085e-001 3.194945e-002 -6.718400e+000 75 73 61
4.743162e-001 2.622872e-001 -6.496205e+000 136 129 103
1.448572e+001 -4.321970e+000 -1.959573e+001 126 113 101
1.425553e+001 -3.882759e+000 -1.999335e+001 236 222 199
1.447560e+001 -3.758566e+000 -1.995819e+001 61 39 34
1.391551e+001 -2.160403e+000 -1.790623e+001 248 239 208
1.423601e+001 -1.667395e+000 -1.807231e+001 251 251 225
1.429236e+001 -1.569607e+000 -1.931781e+001 55 41 35
1.394506e+001 -1.023111e+000 -1.776798e+001 148 127 94
2.205648e+000 2.239647e+000 -1.221200e+001 184 147 95
2.200149e+000 2.443868e+000 -1.209880e+001 36 10 7
2.310130e+000 2.454513e+000 -1.200672e+001 254 223 165
2.209921e+000 2.501721e+000 -1.203827e+001 104 55 12
2.209921e+000 2.501721e+000 -1.203827e+001 104 55 12
2.322998e+000 2.575035e+000 -1.195217e+001 185 137 69
1.652072e+000 2.490764e+000 -1.060489e+001 214 199 168
1.652072e+000 2.490764e+000 -1.060489e+001 214 199 168
4.806860e-002 1.384639e+000 -6.062799e+000 243 210 165
6.817803e-002 1.383761e+000 -6.039022e+000 171 137 93
1.397669e+001 -4.186909e+000 -1.849688e+001 149 121 81
2.269288e+000 2.225172e+000 -1.225805e+001 229 192 140
2.263863e+000 2.344587e+000 -1.211368e+001 227 184 111
2.014838e+000 2.349141e+000 -1.212611e+001 87 51 7
1.970908e+000 2.377959e+000 -1.207843e+001 117 67 11
2.095262e+000 2.388815e+000 -1.198192e+001 221 168 110
2.146115e+000 2.525169e+000 -1.196637e+001 223 189 144
2.146115e+000 2.525169e+000 -1.196637e+001 223 189 144
1.676181e+000 2.561860e+000 -1.207786e+001 246 232 202
2.216319e+000 2.653384e+000 -1.172127e+001 154 131 101
1.875378e-003 1.477254e+000 -5.977228e+000 174 162 138
4.538217e-001 3.660991e-001 -6.483401e+000 91 82 71
1.424131e+001 -2.163891e+000 -1.971322e+001 123 98 74
5.228577e-001 7.878417e-001 -6.361334e+000 143 129 100
2.803187e+000 1.174295e+000 -1.030394e+001 72 68 52
2.009572e+000 2.252395e+000 -1.215379e+001 240 196 149
2.204546e+000 2.290323e+000 -1.218752e+001 212 166 108
2.105088e+000 2.317528e+000 -1.221358e+001 222 190 152
2.184053e+000 2.377191e+000 -1.221319e+001 247 199 137
2.200582e+000 2.532253e+000 -1.207160e+001 60 14 0
1.967201e+000 2.548653e+000 -1.201531e+001 248 208 137
2.216697e+000 2.564269e+000 -1.202212e+001 58 12 0
2.158709e+000 2.575265e+000 -1.196109e+001 248 199 146
1.663738e+000 2.603768e+000 -1.206446e+001 245 230 197
2.136933e+000 2.677532e+000 -1.180004e+001 237 193 133
3.809701e-001 1.249809e+000 -5.926606e+000 248 230 182
2.689604e-002 1.463743e+000 -5.951451e+000 190 169 138
-2.930277e-002 1.476179e+000 -6.006823e+000 146 130 104
1.431421e+001 -4.297006e+000 -2.013828e+001 63 52 40
3.765267e-001 5.660117e-001 -6.465712e+000 152 138 106
4.226934e-001 6.203863e-001 -6.433827e+000 94 83 53
2.190990e+000 2.471212e+000 -1.201596e+001 254 229 168
2.017028e+000 2.496701e+000 -1.207986e+001 233 195 153
2.220911e+000 2.551464e+000 -1.203887e+001 251 203 149
2.316901e+000 2.566345e+000 -1.199088e+001 255 213 138
1.425305e+000 2.657677e+000 -1.311366e+001 110 83 54
1.452525e+000 2.620968e+000 -1.312900e+001 32 23 1
1.286184e+000 2.686893e+000 -1.303408e+001 74 52 6
2.250284e+000 2.497349e+000 -1.207283e+001 250 220 150
6.752512e-001 1.275935e+000 -6.431786e+000 115 103 84
4.421534e-001 3.810416e-001 -6.048968e+000 159 179 197
-1.071105e+000 9.905454e-001 -8.718651e+000 188 153 87
6.864819e-001 1.277710e+000 -6.427371e+000 247 218 174
-2.440184e-001 1.583511e+000 -6.490470e+000 109 106 101
4.207600e-001 2.119076e-001 -6.748565e+000 139 131 108
3.808060e-001 8.003182e-001 -6.410120e+000 151 138 112
-1.094183e+000 9.726697e-001 -8.708346e+000 152 125 75
4.102523e-001 1.046767e+000 -6.151181e+000 231 215 177
3.869561e-001 1.438905e+000 -5.812091e+000 109 94 75
8.742026e-003 1.374999e+000 -5.594369e+000 68 60 49
2.563799e-001 4.885649e-001 -6.378913e+000 115 98 81
3.077118e-001 4.895464e-001 -6.421452e+000 117 105 81
3.319079e-001 6.463317e-001 -6.413711e+000 102 90 66
3.412555e-001 8.028372e-001 -6.389394e+000 94 86 66
-1.322979e+000 1.716800e+000 -9.180407e+000 77 56 17
7.482767e-001 1.533825e+000 -6.392291e+000 215 193 151
3.775081e-001 1.455207e+000 -5.810105e+000 159 147 121
2.169835e+001 -2.762401e+000 -3.679552e+001 253 244 211
2.178018e+001 -1.892507e+000 -3.713782e+001 254 237 165
2.174992e+001 -1.889967e+000 -3.710472e+001 254 237 165
3.990522e-001 1.077092e+000 -6.143004e+000 56 35 22
2.202855e+001 -1.583111e+000 -3.704878e+001 255 241 214
1.250851e+000 2.085709e+000 -1.607296e+001 198 186 174
2.939569e+000 2.284416e+000 -1.188600e+001 247 199 137
4.011130e-001 2.366161e-001 -6.526147e+000 131 120 97
2.223297e+001 -3.063739e+000 -3.837985e+001 120 106 97
2.806534e+000 2.324563e+000 -1.186013e+001 188 123 55
2.746738e+000 2.331580e+000 -1.184324e+001 193 125 62
2.746738e+000 2.331580e+000 -1.184324e+001 193 125 62
4.034894e-001 1.445924e+000 -5.883751e+000 148 119 73
4.005421e-001 7.132515e-001 -6.419338e+000 95 79 54
1.441388e+001 2.377185e+000 -3.584174e+001 253 251 235
1.558980e-001 1.078953e+000 -6.421959e+000 198 175 150
4.152017e-001 1.045170e+000 -6.148848e+000 85 65 39
2.932604e+000 2.184471e+000 -1.204653e+001 253 215 169
1.703950e-001 1.447716e+000 -5.851388e+000 100 82 58
4.185694e-001 1.722744e-001 -6.530272e+000 133 120 95
3.987196e-001 8.248349e-001 -6.397919e+000 147 131 106
3.033169e+000 2.204651e+000 -1.184543e+001 255 192 127
2.925021e+000 2.236196e+000 -1.185693e+001 253 206 147
3.007975e+000 2.298172e+000 -1.178865e+001 164 104 42
5.316803e-001 1.207279e+000 -6.202873e+000 196 161 128
3.243733e-001 5.791290e-001 -6.654515e+000 72 59 40
1.891881e-001 1.350560e+000 -6.001801e+000 247 225 172
3.140902e-001 5.806020e-001 -6.644027e+000 67 54 35
5.039157e-001 -3.371133e-002 -6.556470e+000 111 99 71
4.324304e-001 1.858007e-002 -6.569532e+000 7 6 1
2.940841e+000 2.443139e+000 -1.189930e+001 156 110 44
5.089047e-001 1.761114e-002 -6.556261e+000 117 99 63
5.181096e-001 2.819032e-001 -6.479280e+000 130 122 86
1.663662e-001 1.126312e+000 -6.448579e+000 50 24 6
2.623652e+000 2.421532e+000 -1.193862e+001 217 165 98
2.622919e+000 2.559688e+000 -1.182093e+001 247 207 138
1.184748e-001 1.458132e+000 -5.880432e+000 82 68 55
3.207976e-001 2.565651e-001 -6.672437e+000 98 82 61
2.592669e+000 2.344727e+000 -1.197994e+001 2 4 1
2.802544e+000 2.522608e+000 -1.187524e+001 44 23 17
2.782294e+000 2.587664e+000 -1.189030e+001 242 202 138
2.935303e+000 2.594701e+000 -1.185175e+001 41 16 8
-3.770879e-002 1.515043e+000 -6.279740e+000 221 196 155
3.951534e+000 1.765738e+000 -1.269957e+001 110 89 72
3.951534e+000 1.765738e+000 -1.269957e+001 110 89 72
2.157084e-001 1.120941e+000 -6.414563e+000 53 43 23
2.817596e+000 2.564999e+000 -1.177963e+001 230 177 106
2.605391e+000 2.632626e+000 -1.175185e+001 213 159 87
3.231213e-001 -3.564689e-002 -6.730596e+000 90 83 56
2.706617e-001 3.821520e-001 -6.482144e+000 120 108 81
3.234228e-001 5.269234e-001 -6.585333e+000 91 79 60
3.008594e-001 9.260938e-001 -6.384197e+000 24 24 24
3.643966e-001 1.054908e+000 -6.179436e+000 167 148 115
1.736082e-001 1.118518e+000 -6.416590e+000 226 204 156
2.544350e+000 2.167809e+000 -1.199702e+001 168 103 43
1.635650e-001 1.148943e+000 -6.300321e+000 228 195 149
2.690354e+000 2.336818e+000 -1.201246e+001 62 27 14
2.690354e+000 2.336818e+000 -1.201246e+001 62 27 14
2.930648e+000 2.332591e+000 -1.195238e+001 213 152 93
2.541014e+000 2.584609e+000 -1.183109e+001 223 163 103
2.929793e+000 2.612536e+000 -1.184868e+001 22 6 3
2.929793e+000 2.612536e+000 -1.184868e+001 22 6 3
2.568722e+000 2.646104e+000 -1.190429e+001 57 24 5
5.001587e+000 1.966023e+000 -8.279347e+000 108 99 90
3.775138e-001 1.253364e+000 -5.948186e+000 180 138 95
4.451866e-001 -5.057236e-002 -6.566812e+000 27 22 12
5.091560e-001 -6.835870e-002 -6.562123e+000 89 91 75
3.244837e-001 -1.031472e-002 -6.708425e+000 87 80 68
3.244837e-001 -1.031472e-002 -6.708425e+000 87 80 68
4.773869e+000 8.668732e-001 -8.667345e+000 141 119 86
1.731491e-001 1.106636e+000 -6.419050e+000 209 186 152
1.805063e-001 1.120975e+000 -6.407727e+000 67 53 17
3.824842e-001 1.093600e+000 -6.138958e+000 140 105 67
1.548995e-001 1.148505e+000 -6.328412e+000 63 39 16
2.991755e+000 2.208551e+000 -1.201979e+001 214 158 91
2.968992e+000 2.377571e+000 -1.193890e+001 41 8 4
2.743461e+000 2.441293e+000 -1.189375e+001 22 6 4
2.544986e+000 2.449157e+000 -1.194233e+001 30 7 9
2.792140e+000 2.566794e+000 -1.194652e+001 202 155 79
2.506584e+000 2.540034e+000 -1.188698e+001 236 187 123
2.805690e+000 2.547882e+000 -1.184209e+001 33 6 5
2.567242e+000 2.552705e+000 -1.185774e+001 59 26 7
2.567242e+000 2.552705e+000 -1.185774e+001 59 26 7
2.671163e+000 2.648401e+000 -1.172057e+001 175 127 73
5.010398e+000 1.953487e+000 -8.249546e+000 15 11 13
2.758776e+000 2.477525e+000 -1.050785e+001 126 109 83
2.758776e+000 2.477525e+000 -1.050785e+001 126 109 83
2.433390e+000 2.492577e+000 -1.055537e+001 172 156 131
2.821320e-001 1.454505e+000 -6.616579e+000 109 86 60
8.036384e-002 1.377069e+000 -6.029197e+000 251 219 170
2.506731e-001 1.441392e+000 -5.828265e+000 98 88 63
-8.334490e-002 1.507484e+000 -6.130225e+000 107 95 68
-2.780967e-004 1.471806e+000 -5.990099e+000 204 188 152
-3.244596e-003 1.476419e+000 -5.987016e+000 121 111 83
3.205336e-001 -3.495496e-002 -6.716906e+000 75 69 50
5.208117e-001 2.018220e-001 -6.496618e+000 25 24 23
4.107863e-001 4.964392e-001 -6.459168e+000 133 122 92
2.936284e+000 2.281600e+000 -1.205872e+001 227 183 120
2.952242e+000 2.302724e+000 -1.199245e+001 76 31 6
2.553725e+000 2.405458e+000 -1.190611e+001 52 22 9
2.582975e+000 2.417362e+000 -1.183179e+001 255 211 150
2.874448e+000 2.449431e+000 -1.179860e+001 242 195 128
2.763810e+000 2.506712e+000 -1.190587e+001 19 5 0
2.460698e+000 2.542576e+000 -1.191162e+001 248 192 125
2.712262e+000 2.559600e+000 -1.186604e+001 89 41 19
2.498362e+000 2.647055e+000 -1.184605e+001 229 178 111
2.348211e+000 2.475757e+000 -1.048456e+001 219 203 177
2.369209e+000 2.494801e+000 -1.045443e+001 231 211 187
2.681758e-001 1.313213e+000 -6.137302e+000 252 218 170
1.813785e-001 1.465250e+000 -6.423569e+000 221 195 146
1.817230e-001 1.479426e+000 -6.423528e+000 205 181 135
6.215899e-002 1.379878e+000 -6.042334e+000 241 209 160
3.926072e-001 1.448097e+000 -5.811146e+000 171 161 134
2.888180e-001 1.441837e+000 -5.820353e+000 186 172 143
-1.024010e-001 1.529240e+000 -6.217416e+000 80 68 51
3.701681e-001 1.454173e+000 -5.811579e+000 106 99 73
3.283738e-001 2.257381e-001 -6.661844e+000 85 82 66
3.160853e-001 7.735013e-001 -6.579503e+000 95 86 69
3.952622e+000 1.832034e+000 -1.254673e+001 84 66 48
3.908512e+000 1.918131e+000 -1.271285e+001 64 49 40
2.942676e+000 2.189659e+000 -1.220033e+001 77 38 1
2.942676e+000 2.189659e+000 -1.220033e+001 77 38 1
2.939876e+000 2.333791e+000 -1.182638e+001 191 143 97
2.707101e+000 2.351850e+000 -1.190440e+001 193 131 57
2.898138e+000 2.419816e+000 -1.186931e+001 251 203 145
2.833248e+000 2.418981e+000 -1.176263e+001 164 112 51
2.833248e+000 2.418981e+000 -1.176263e+001 164 112 51
2.479107e+000 2.557585e+000 -1.189779e+001 178 119 51
5.006104e+000 1.916594e+000 -8.265730e+000 33 21 26
2.321359e+000 2.675765e+000 -1.173412e+001 150 121 93
2.728503e+000 2.486359e+000 -1.045644e+001 193 177 151
1.975054e+000 2.475843e+000 -1.051503e+001 249 230 198
-6.154759e-002 1.655551e+000 -6.716475e+000 86 69 40
1.253259e-002 1.482916e+000 -6.115227e+000 176 147 103
1.253259e-002 1.482916e+000 -6.115227e+000 176 147 103
4.500622e-001 1.454575e+000 -5.816122e+000 92 78 51
3.925345e-003 1.469457e+000 -5.978392e+000 223 207 171
5.959726e-002 1.468666e+000 -5.921914e+000 108 94 68
3.996366e-003 1.484231e+000 -5.981114e+000 112 100 74
4.423744e-001 -6.171861e-002 -6.574556e+000 12 7 2
3.151944e-001 5.452768e-002 -6.713366e+000 84 81 66
3.963381e-001 8.474129e-001 -6.390960e+000 148 134 107
1.135794e-001 1.089536e+000 -6.445955e+000 236 213 164
1.464221e-001 1.139083e+000 -6.430262e+000 33 6 3
2.651406e+000 2.217650e+000 -1.203555e+001 244 190 133
2.903729e+000 2.282056e+000 -1.206624e+001 227 182 128
2.469569e+000 2.282246e+000 -1.195170e+001 238 179 118
3.031274e+000 2.307036e+000 -1.193794e+001 232 187 130
2.777926e+000 2.398804e+000 -1.172603e+001 255 209 154
2.814980e+000 2.488760e+000 -1.196706e+001 70 26 0
1.585843e-001 1.226748e+000 -6.319371e+000 177 145 104
2.827676e+000 2.433493e+000 -1.167989e+001 228 178 119
2.421520e+000 2.527531e+000 -1.194698e+001 196 129 56
2.569777e+000 2.608777e+000 -1.178820e+001 53 14 0
2.587990e+000 2.640289e+000 -1.171930e+001 255 210 157
3.756307e-001 1.207776e+000 -5.936829e+000 74 44 8
3.756307e-001 1.207776e+000 -5.936829e+000 74 44 8
1.532475e-001 1.322147e+000 -6.326224e+000 224 189 147
2.447010e+000 2.516142e+000 -1.047762e+001 192 172 145
2.526772e-001 1.265694e+000 -5.980319e+000 201 173 131
1.798035e-001 1.372779e+000 -6.219136e+000 247 215 167
1.224015e-001 1.450202e+000 -5.875683e+000 98 83 58
8.067303e-002 1.460208e+000 -5.903515e+000 172 158 130
6.677033e-002 1.467115e+000 -5.915586e+000 121 106 82
-7.470167e-002 1.523071e+000 -6.117182e+000 91 80 50
3.057414e-002 1.478296e+000 -5.949863e+000 168 158 133
-5.856559e-001 1.450521e+000 -5.932295e+000 46 48 45
2.157543e-001 5.154402e-001 -6.370378e+000 88 73 44
3.949120e-001 6.248981e-001 -6.439667e+000 149 136 104
3.949120e-001 6.248981e-001 -6.439667e+000 149 136 104
3.188316e-001 9.320241e-001 -6.583554e+000 81 74 59
3.601030e-001 1.052007e+000 -6.195228e+000 63 48 24
3.224591e-001 1.124062e+000 -6.488857e+000 96 87 70
2.989603e+000 2.186440e+000 -1.212465e+001 90 50 9
2.856631e+000 2.251007e+000 -1.216037e+001 46 8 0
2.397111e+000 2.445622e+000 -1.200257e+001 248 194 134
2.640878e+000 2.426522e+000 -1.186861e+001 255 204 137
2.922749e+000 2.449734e+000 -1.175230e+001 238 180 121
2.609997e+000 2.569163e+000 -1.180882e+001 255 231 164
2.479099e+000 2.678044e+000 -1.187353e+001 249 197 133
1.566942e-001 1.318327e+000 -6.303978e+000 161 128 85
2.426008e+000 2.482179e+000 -1.043380e+001 145 128 103
1.543603e-001 1.332554e+000 -6.344266e+000 131 103 64
1.130866e-001 1.374617e+000 -5.998151e+000 195 163 114
-8.416821e-002 1.510477e+000 -6.134661e+000 79 67 44
3.405067e-002 1.464318e+000 -5.950187e+000 222 201 170
-5.935967e-002 1.499521e+000 -6.075328e+000 176 165 147
3.102532e-001 4.368559e-002 -6.518938e+000 80 71 56
4.471909e-001 1.372514e-001 -6.546470e+000 150 137 113
3.086586e-001 4.420179e-001 -6.473757e+000 88 77 55
2.326143e-001 1.870687e-001 -6.459617e+000 28 26 27
3.726292e-001 1.448878e+000 -5.818644e+000 146 139 123
3.152604e-001 1.674322e-001 -6.521006e+000 2 1 0
4.014846e-001 1.057071e+000 -6.144331e+000 212 198 158
5.658476e-001 1.463250e+000 -5.912337e+000 200 182 157
3.790717e-001 1.834881e-001 -6.540295e+000 166 149 121
3.814162e-001 2.301198e-001 -6.530037e+000 161 144 115
3.574213e-001 8.734947e-001 -6.393556e+000 92 80 68
-1.119954e+000 1.163874e+000 -8.712641e+000 46 20 3
5.490902e-001 1.193874e+000 -6.229955e+000 182 158 122
5.859517e-001 1.375042e+000 -5.975760e+000 176 142 104
9.344453e-001 1.674727e+000 -6.703102e+000 210 179 133
4.741445e-001 1.015076e-001 -6.579895e+000 152 174 217
3.659858e-001 1.090214e-001 -6.547461e+000 87 74 57
3.399178e-001 6.330070e-001 -6.416880e+000 135 120 97
3.737223e-001 7.887860e-001 -6.411613e+000 164 153 123
9.570210e-001 2.626347e+000 -1.113330e+001 220 199 168
-3.695926e-001 1.602949e+000 -6.574723e+000 203 185 165
4.689532e-001 -4.926147e-002 -6.555630e+000 161 145 128
3.148038e-001 8.097622e-003 -6.517253e+000 7 4 5
4.178545e-001 1.058954e-001 -6.542285e+000 152 136 110
3.071904e-001 2.569942e-001 -6.471379e+000 85 73 51
4.086742e-001 3.891336e-001 -6.484616e+000 168 154 128
-1.648322e+000 4.643041e-001 -9.140846e+000 198 204 227
3.745966e-001 6.722397e-001 -6.439424e+000 179 165 136
-1.666920e+000 5.176093e-001 -9.129236e+000 86 69 16
3.729932e-001 8.109208e-001 -6.411191e+000 187 176 144
-1.189204e+000 1.182495e+000 -8.778059e+000 176 132 65
5.423688e-001 1.143543e+000 -6.532466e+000 21 14 6
4.792344e-001 1.118085e+000 -6.190396e+000 108 82 49
5.391462e-001 1.140027e+000 -6.219236e+000 138 116 92
2.175788e-001 1.365218e+000 -5.944869e+000 230 198 151
6.510831e-001 1.524877e+000 -6.366723e+000 95 81 70
7.677339e-001 1.486045e+000 -6.030916e+000 56 46 36
3.873725e-001 -7.412477e-002 -6.607260e+000 17 12 8
3.704749e-001 -6.591991e-002 -6.579766e+000 15 11 8
4.172191e-001 5.997738e-001 -6.446701e+000 45 36 29
3.526256e-001 6.524293e-001 -6.431382e+000 119 105 79
3.526256e-001 6.524293e-001 -6.431382e+000 119 105 79
-1.673920e+000 4.741265e-001 -9.128186e+000 97 81 35
3.648430e-001 8.026730e-001 -6.406616e+000 75 62 38
3.560323e-001 8.520317e-001 -6.386251e+000 77 64 47
3.694591e-001 9.662499e-001 -6.377008e+000 13 10 1
4.872184e-001 2.260960e+000 -1.349255e+001 135 111 79
