ply
format ascii 1.0
element face 0
property list uchar int vertex_indices
element vertex 188
property float x
property float y
property float z
property uchar diffuse_red
property uchar diffuse_green
property uchar diffuse_blue
end_header
-7.049775e-001 8.279481e-002 2.826751e+000 133 129 120
-9.792039e-001 9.485744e-001 3.247453e+000 42 35 24
1.673356e+000 -1.303043e+000 3.240640e+000 109 97 73
-5.243287e-001 -1.095790e+000 2.653815e+000 148 148 146
2.567310e+000 2.091629e+000 4.115964e+000 132 116 83
-3.632600e-001 2.371711e+000 2.265106e+000 138 138 130
1.938099e+000 1.072119e-001 3.610703e+000 135 119 94
8.923944e-001 5.619233e-002 2.840845e+000 143 128 99
-3.042978e-001 2.914120e-001 2.274381e+000 152 148 139
-2.941123e-001 1.992066e+000 2.236040e+000 143 139 130
1.527415e-001 -1.543326e+000 1.789916e+000 66 64 55
7.194909e-001 -1.093206e-001 2.973455e+000 101 86 57
-4.880699e-001 -1.720160e+000 2.984198e+000 64 71 68
1.792698e+000 3.791506e-001 3.726262e+000 59 50 31
7.167573e-001 3.435408e-001 2.995122e+000 133 116 90
8.442898e-001 1.411759e+000 2.859053e+000 139 128 110
-1.296215e+000 -1.549047e+000 3.888115e+000 17 14 7
2.068105e+000 -1.428462e+000 3.271265e+000 108 101 82
-1.360239e+000 1.727806e+000 5.941767e+000 41 32 21
-4.054995e-001 1.277387e+000 2.382417e+000 151 146 140
4.831115e-001 2.068429e+000 3.035081e+000 214 205 178
-1.377605e+000 -1.569270e+000 3.762629e+000 118 119 113
-3.000391e-002 -1.216954e+000 1.902677e+000 127 120 113
-1.457999e+000 -7.612557e-001 3.960920e+000 142 135 125
2.743865e+000 2.184143e+000 4.606414e+000 86 75 49
6.292186e-001 2.003284e+000 3.171693e+000 83 70 44
-1.523111e-002 -1.566434e+000 1.776806e+000 151 150 147
1.334864e+000 -1.433166e+000 2.790635e+000 75 69 50
2.679329e-002 -1.337463e+000 1.871332e+000 222 219 200
2.679329e-002 -1.337463e+000 1.871332e+000 222 219 200
-1.835759e-002 -1.299978e+000 1.889904e+000 137 130 122
7.140037e-001 -1.341040e+000 2.880811e+000 102 95 74
7.323639e-001 -9.999681e-003 2.907937e+000 171 165 141
-1.120045e+000 1.273502e+000 5.528538e+000 10 6 3
-1.079725e+000 1.677650e+000 5.549419e+000 87 89 83
-2.888652e-001 2.595543e+000 2.207275e+000 137 144 138
1.144158e+000 -1.462391e+000 2.666146e+000 246 241 221
7.762669e-001 -1.301391e+000 2.865464e+000 19 19 19
-1.759197e+000 1.033199e-001 4.417930e+000 151 144 126
6.468269e-001 2.592354e-001 2.958425e+000 223 210 178
7.628318e-001 3.679927e-001 3.015074e+000 47 29 9
7.633489e-001 3.678660e-001 3.015108e+000 47 29 9
6.861576e-001 3.651528e-001 2.987361e+000 37 26 8
5.979186e-001 3.696197e-001 2.951950e+000 55 38 12
-1.185558e+000 1.350824e+000 5.574328e+000 69 70 62
1.378652e+000 1.403579e+000 3.400624e+000 228 224 195
6.467277e-001 1.409826e+000 3.203401e+000 127 117 95
2.778266e+000 2.236598e+000 4.228398e+000 115 99 76
1.438688e+000 1.887642e+000 3.552098e+000 90 91 78
-1.690075e-001 1.417739e+000 2.053884e+000 217 211 185
2.844108e-001 2.320729e+000 2.537711e+000 107 93 66
1.889363e-001 -1.577746e+000 1.777856e+000 33 25 19
-1.264064e+000 -1.544125e+000 3.783338e+000 28 23 17
8.138447e-001 -1.330004e+000 2.874227e+000 188 181 183
-6.462350e-001 -6.023437e-001 2.851996e+000 151 144 134
-1.744494e+000 3.952535e-002 4.499333e+000 117 118 104
2.022860e+000 1.874396e-001 3.486401e+000 128 113 88
7.191040e-001 2.446160e-001 2.953441e+000 172 158 136
6.878907e-001 2.918887e-001 2.977700e+000 86 69 51
6.004801e-001 3.012121e-001 2.947254e+000 106 84 60
5.097679e-001 2.893403e-001 2.852729e+000 118 91 66
5.080591e-001 2.855171e-001 2.837358e+000 118 91 66
6.411719e-001 3.328063e-001 2.946127e+000 182 152 124
4.611517e-001 3.249896e-001 2.813401e+000 231 212 185
5.066852e-001 3.537346e-001 2.852056e+000 62 39 12
-2.103411e+000 1.697316e+000 4.830490e+000 162 159 150
-1.136733e+000 1.888018e+000 4.046522e+000 16 12 12
1.657386e+000 2.004832e+000 3.792476e+000 152 142 122
-7.951462e-001 1.935606e+000 3.012259e+000 58 51 33
7.354998e-002 2.759576e+000 2.508411e+000 132 116 106
-8.463454e-002 2.790775e+000 2.370445e+000 245 244 232
9.689846e-001 -4.655534e-001 2.788928e+000 100 88 66
1.045060e+000 -4.701085e-001 2.689925e+000 231 225 199
2.677650e+000 2.810139e-001 4.280193e+000 225 207 183
1.700516e+000 2.661000e-001 3.638725e+000 229 211 181
7.237453e-001 3.374134e-001 2.995940e+000 129 112 86
7.232178e-001 3.374349e-001 2.995767e+000 129 112 86
5.588596e-001 3.676465e-001 2.861999e+000 87 59 29
-9.739624e-001 1.604462e+000 5.306667e+000 78 76 64
-9.629341e-001 1.855261e+000 3.296387e+000 103 88 69
-9.629341e-001 1.855261e+000 3.296387e+000 103 88 69
-2.586663e-001 2.698821e+000 2.269525e+000 255 254 250
-6.292835e-001 -1.691055e+000 2.918393e+000 57 42 36
-1.258709e+000 -1.511135e+000 3.754616e+000 90 88 76
2.152842e+000 -1.467246e+000 3.326061e+000 248 249 237
-1.328517e+000 -1.495274e+000 3.862109e+000 40 35 29
-6.374213e-001 -5.739664e-001 2.751312e+000 108 104 93
8.590382e-001 -4.873583e-001 2.932685e+000 96 80 55
8.894874e-001 -4.777332e-001 2.890467e+000 80 69 49
-2.900311e-001 -5.269288e-001 2.282219e+000 96 92 81
-4.501915e-002 -5.059161e-001 1.932522e+000 237 231 205
-1.652463e+000 1.202450e-001 4.353047e+000 134 127 109
2.051437e+000 1.699070e-001 3.479757e+000 240 239 209
1.463836e+000 1.370939e-001 3.313270e+000 236 233 203
-1.687491e+000 1.008243e+000 4.591887e+000 141 134 116
1.956485e+000 1.371527e+000 3.554766e+000 244 243 215
1.709947e+000 1.929605e+000 3.786341e+000 111 108 91
-4.413344e-001 1.329539e+000 2.447059e+000 157 153 142
-3.973959e-001 1.372072e+000 2.391488e+000 93 89 80
-3.018408e-001 1.363569e+000 2.259440e+000 165 161 152
-3.226092e-001 1.374657e+000 2.268009e+000 88 84 75
-6.152350e-001 1.939660e+000 2.683607e+000 63 53 34
7.438931e-001 -1.537342e+000 2.803632e+000 7 12 5
-1.370188e+000 -1.601639e+000 3.570759e+000 25 27 26
-1.886192e-001 -1.455213e+000 2.148568e+000 90 89 87
-1.279944e+000 -1.579332e+000 3.749566e+000 78 76 69
-1.420381e+000 -1.559297e+000 3.558046e+000 124 123 119
-1.203013e+000 -1.485825e+000 3.841332e+000 54 47 31
-1.203013e+000 -1.485825e+000 3.841332e+000 54 47 31
1.218808e-001 -1.307420e+000 1.869748e+000 221 206 190
-2.688104e-002 -9.522482e-001 1.908058e+000 110 103 86
9.166251e-001 -4.721313e-001 2.853563e+000 89 77 57
9.166251e-001 -4.721313e-001 2.853563e+000 89 77 57
-1.757652e+000 -4.753421e-002 4.354372e+000 70 66 55
2.861319e+000 2.692697e-002 4.432248e+000 91 79 55
1.836117e+000 2.913649e-001 3.722671e+000 47 48 36
2.718216e+000 1.615204e+000 4.439747e+000 121 124 107
8.842849e-001 1.390655e+000 2.821114e+000 107 102 82
-2.084372e-001 1.373090e+000 2.095241e+000 165 163 156
6.463783e-001 1.967971e+000 3.087299e+000 57 50 28
-1.245638e-001 2.700341e+000 2.324182e+000 163 150 142
-1.108463e-001 2.743555e+000 2.339044e+000 128 133 113
1.980525e-001 -1.563244e+000 1.802940e+000 151 139 130
2.661909e-001 -1.567319e+000 1.857784e+000 199 192 175
7.287012e-001 -1.576696e+000 2.787726e+000 41 35 18
-1.698152e-001 -1.475478e+000 2.144041e+000 95 94 92
-1.698152e-001 -1.475478e+000 2.144041e+000 95 94 92
-1.545828e-001 -1.468962e+000 2.098284e+000 141 140 138
6.234146e-001 -1.533879e+000 3.149285e+000 12 11 6
-1.572277e+000 -1.556656e+000 3.679881e+000 18 20 17
-1.410368e+000 -1.531342e+000 3.590452e+000 29 28 24
-1.087844e-001 -1.373357e+000 2.046980e+000 107 102 99
2.294341e+000 -1.476308e+000 3.426160e+000 179 169 154
7.727525e-001 -1.354665e+000 2.860697e+000 57 52 44
-3.579096e-002 -8.268071e-001 1.895934e+000 113 106 90
-6.018729e-002 -5.054241e-001 1.916973e+000 131 124 108
1.415795e+000 1.978977e-002 3.382873e+000 125 106 76
7.043493e-001 -2.620478e-002 2.898850e+000 188 179 153
2.146584e-001 1.836593e-001 2.586837e+000 255 250 222
2.783311e+000 1.046026e+000 4.441412e+000 138 141 122
-1.204097e+000 1.553705e+000 5.645247e+000 46 48 40
1.717554e+000 1.825292e+000 3.786015e+000 116 119 103
-7.934359e-001 1.883584e+000 2.915734e+000 46 43 28
-4.124460e-001 2.192876e+000 2.401205e+000 111 111 103
-1.574921e-001 2.753350e+000 2.337596e+000 241 247 235
-1.302632e+000 -1.771482e+000 3.530792e+000 153 131 107
-4.829050e-001 -1.637354e+000 2.561919e+000 126 128 127
1.120226e+000 -1.520060e+000 2.634349e+000 243 247 232
-1.395217e+000 -1.602597e+000 3.594218e+000 117 119 118
1.113697e+000 -1.511424e+000 2.646637e+000 97 95 75
1.288909e+000 -1.506811e+000 2.700716e+000 254 237 221
1.163518e-002 -1.354090e+000 1.868692e+000 226 221 202
5.091810e-002 -1.350657e+000 1.892257e+000 149 146 127
-9.164499e-002 -1.319328e+000 1.999774e+000 99 94 88
-1.363122e-001 -1.291932e+000 2.062515e+000 109 104 101
7.603372e-001 -1.325708e+000 2.917167e+000 105 97 85
-2.535890e-002 -8.473388e-001 1.890450e+000 228 221 202
-5.563508e-001 -5.771479e-001 2.643109e+000 87 83 72
-5.365173e-001 -5.740837e-001 2.602877e+000 90 86 75
-6.979277e-002 -3.166186e-001 1.932207e+000 116 108 89
1.450549e+000 5.719333e-002 3.288902e+000 127 111 78
1.466308e+000 7.461924e-002 3.315453e+000 231 225 193
2.827222e+000 3.050360e-001 4.391326e+000 50 44 28
-4.551806e-001 3.287246e-001 2.594438e+000 112 109 92
1.491716e+000 6.570344e-001 3.390828e+000 196 182 162
2.427731e+000 1.446426e+000 4.121746e+000 65 50 38
1.302788e+000 1.343740e+000 3.447286e+000 131 125 96
-4.072317e-001 1.374347e+000 2.415124e+000 86 82 73
1.259170e+000 2.043477e+000 3.564068e+000 99 82 59
6.322300e-001 1.998747e+000 3.118241e+000 69 62 38
8.949713e-002 2.736301e+000 2.498999e+000 224 226 246
-1.404299e-001 2.761026e+000 2.358258e+000 103 106 91
-2.796840e-001 2.638307e+000 2.216681e+000 91 101 92
-2.796840e-001 2.638307e+000 2.216681e+000 91 101 92
-7.147729e-002 2.829708e+000 2.372856e+000 123 123 105
-4.872875e+000 -4.211408e+000 -2.270038e+001 214 202 176
-3.418793e-001 -1.003693e+000 -2.180075e+000 0 255 0
-3.453820e-001 -1.012690e+000 -2.229134e+000 255 255 0
2.140872e-001 -9.570521e-001 -2.372154e+000 255 0 0
2.118145e-001 -9.675158e-001 -2.420994e+000 255 255 0
8.223719e-001 -1.006030e+000 -2.442758e+000 0 255 0
8.267764e-001 -1.016649e+000 -2.491419e+000 255 255 0
-9.426134e-001 -1.039508e+000 -1.911527e+000 255 0 0
-9.514795e-001 -1.050163e+000 -1.959567e+000 255 255 0
-2.264718e+000 -2.748109e+000 9.335202e+000 0 255 0
-2.246568e+000 -2.728397e+000 9.292988e+000 255 255 0
-7.534334e-001 8.635460e-002 2.771005e+000 255 0 0
-7.260331e-001 9.349487e-002 2.729795e+000 255 255 0
