ply
format ascii 1.0
element face 0
property list uchar int vertex_indices
element vertex 884
property float x
property float y
property float z
property uchar diffuse_red
property uchar diffuse_green
property uchar diffuse_blue
end_header
1.418134e-001 1.483541e+000 -5.775948e+000 134 119 88
4.360275e-001 -3.447069e-002 -6.615907e+000 75 73 61
5.927610e-001 2.106958e-001 -6.376843e+000 136 129 103
1.456659e+001 -4.340486e+000 -1.962753e+001 126 113 101
1.435758e+001 -3.907526e+000 -2.005064e+001 236 222 199
1.447890e+001 -3.754355e+000 -1.991423e+001 61 39 34
1.405995e+001 -2.186889e+000 -1.797543e+001 248 239 208
1.437105e+001 -1.688287e+000 -1.813641e+001 251 251 225
1.441194e+001 -1.588358e+000 -1.938447e+001 55 41 35
1.410134e+001 -1.043182e+000 -1.784643e+001 148 127 94
2.376916e+000 2.289336e+000 -1.239916e+001 184 147 95
2.371649e+000 2.503335e+000 -1.228055e+001 36 10 7
2.487550e+000 2.514819e+000 -1.218522e+001 254 223 165
2.382250e+000 2.564053e+000 -1.221737e+001 104 55 12
2.382250e+000 2.564053e+000 -1.221737e+001 104 55 12
2.501149e+000 2.641044e+000 -1.212788e+001 185 137 69
1.808454e+000 2.556912e+000 -1.071882e+001 214 199 168
1.808454e+000 2.556912e+000 -1.071882e+001 214 199 168
1.423081e-001 1.398653e+000 -5.913684e+000 243 210 165
1.630790e-001 1.397396e+000 -5.887665e+000 171 137 93
1.401155e+001 -4.188931e+000 -1.846943e+001 149 121 81
2.443255e+000 2.274140e+000 -1.244760e+001 229 192 140
2.438479e+000 2.399472e+000 -1.229681e+001 227 184 111
2.177622e+000 2.404057e+000 -1.230855e+001 87 51 7
2.132006e+000 2.434378e+000 -1.225883e+001 117 67 11
2.262873e+000 2.446028e+000 -1.215858e+001 221 168 110
2.316006e+000 2.588808e+000 -1.214222e+001 223 189 144
2.316006e+000 2.588808e+000 -1.214222e+001 223 189 144
1.824630e+000 2.628018e+000 -1.226161e+001 246 232 202
2.391162e+000 2.723737e+000 -1.188654e+001 154 131 101
9.419250e-002 1.497065e+000 -5.823296e+000 174 162 138
5.710781e-001 3.203977e-001 -6.363189e+000 91 82 71
1.435364e+001 -2.184892e+000 -1.977746e+001 123 98 74
6.445156e-001 7.669981e-001 -6.234303e+000 143 129 100
3.021266e+000 1.175768e+000 -1.041079e+001 72 68 52
2.172003e+000 2.302680e+000 -1.233747e+001 240 196 149
2.375851e+000 2.342427e+000 -1.237348e+001 212 166 108
2.271428e+000 2.370739e+000 -1.239995e+001 222 190 152
2.353989e+000 2.433216e+000 -1.239973e+001 247 199 137
2.372157e+000 2.595898e+000 -1.225197e+001 60 14 0
2.128552e+000 2.613392e+000 -1.219325e+001 248 208 137
2.389357e+000 2.629550e+000 -1.220039e+001 58 12 0
2.329150e+000 2.641257e+000 -1.213664e+001 248 199 146
1.811902e+000 2.672186e+000 -1.224840e+001 245 230 197
2.307488e+000 2.748831e+000 -1.196857e+001 237 193 133
4.970623e-001 1.256486e+000 -5.772922e+000 248 230 182
1.208999e-001 1.482730e+000 -5.795980e+000 190 169 138
6.097799e-002 1.495883e+000 -5.854508e+000 146 130 104
1.434714e+001 -4.301032e+000 -2.012467e+001 63 52 40
4.893029e-001 5.317830e-001 -6.344190e+000 152 138 106
5.382705e-001 5.894491e-001 -6.310601e+000 94 83 53
2.362674e+000 2.532194e+000 -1.219417e+001 254 229 168
2.180348e+000 2.558898e+000 -1.226084e+001 233 195 153
2.393655e+000 2.616100e+000 -1.221789e+001 251 203 149
2.494474e+000 2.631833e+000 -1.216821e+001 255 213 138
1.552405e+000 2.721903e+000 -1.332822e+001 110 83 54
1.580833e+000 2.683575e+000 -1.334449e+001 32 23 1
1.408303e+000 2.754199e+000 -1.324910e+001 74 52 6
2.425179e+000 2.560152e+000 -1.225603e+001 250 220 150
8.060899e-001 1.281668e+000 -6.305315e+000 115 103 84
5.623035e-001 3.356671e-001 -5.904645e+000 159 179 197
-1.047198e+000 9.773672e-001 -8.726621e+000 188 153 87
8.180307e-001 1.284937e+000 -6.308265e+000 247 218 174
-1.683758e-001 1.608068e+000 -6.370994e+000 109 106 101
5.364821e-001 1.572839e-001 -6.647745e+000 139 131 108
4.949234e-001 7.798376e-001 -6.287866e+000 151 138 112
-1.071603e+000 9.585112e-001 -8.716016e+000 152 125 75
5.269895e-001 1.041019e+000 -6.012573e+000 231 215 177
5.033028e-001 1.457199e+000 -5.651106e+000 109 94 75
1.030809e-001 1.389232e+000 -5.417974e+000 68 60 49
3.637207e-001 4.495170e-001 -6.255039e+000 115 98 81
4.178073e-001 4.505258e-001 -6.301414e+000 117 105 81
4.433535e-001 6.167471e-001 -6.291825e+000 102 90 66
4.531390e-001 7.824297e-001 -6.265791e+000 94 86 66
-1.312815e+000 1.740625e+000 -9.207534e+000 77 56 17
8.831978e-001 1.556954e+000 -6.271534e+000 215 193 151
4.934746e-001 1.473597e+000 -5.646533e+000 159 147 121
2.166762e+001 -2.755149e+000 -3.691503e+001 253 244 211
2.174837e+001 -1.885318e+000 -3.725973e+001 254 237 165
2.171534e+001 -1.883339e+000 -3.722384e+001 254 237 165
5.153158e-001 1.072974e+000 -6.004360e+000 56 35 22
2.200762e+001 -1.576985e+000 -3.718848e+001 255 241 214
1.352309e+000 2.116295e+000 -1.637636e+001 198 186 174
3.148244e+000 2.337677e+000 -1.206372e+001 247 199 137
5.160617e-001 1.833920e-001 -6.408725e+000 131 120 97
2.212116e+001 -3.042660e+000 -3.839721e+001 120 106 97
3.009082e+000 2.379678e+000 -1.203595e+001 188 123 55
2.946626e+000 2.387046e+000 -1.201808e+001 193 125 62
2.946626e+000 2.387046e+000 -1.201808e+001 193 125 62
5.203489e-001 1.464229e+000 -5.726273e+000 148 119 73
5.159534e-001 6.877241e-001 -6.297647e+000 95 79 54
1.438941e+001 2.371216e+000 -3.591031e+001 253 251 235
2.563579e-001 1.074558e+000 -6.299668e+000 198 175 150
5.323416e-001 1.039301e+000 -6.009861e+000 85 65 39
3.139613e+000 2.232584e+000 -1.223092e+001 253 215 169
2.735270e-001 1.465776e+000 -5.690674e+000 100 82 58
5.352914e-001 1.149511e-001 -6.416179e+000 133 120 95
5.135028e-001 8.059511e-001 -6.272749e+000 147 131 106
3.246930e+000 2.254416e+000 -1.202243e+001 255 192 127
3.133399e+000 2.287267e+000 -1.203350e+001 253 206 147
3.220847e+000 2.352451e+000 -1.196286e+001 164 104 42
6.551185e-001 1.211128e+000 -6.067573e+000 196 161 128
4.322148e-001 5.456291e-001 -6.543277e+000 72 59 40
2.889737e-001 1.361338e+000 -5.847241e+000 247 225 172
4.213443e-001 5.471751e-001 -6.532026e+000 67 54 35
6.240806e-001 -1.015200e-001 -6.440851e+000 111 99 71
5.480303e-001 -4.641638e-002 -6.453791e+000 7 6 1
3.149446e+000 2.504245e+000 -1.207767e+001 156 110 44
6.292804e-001 -4.737950e-002 -6.440670e+000 117 99 63
6.392274e-001 2.315534e-001 -6.359243e+000 130 122 86
2.586480e-001 1.122885e+000 -6.315672e+000 50 24 6
2.818517e+000 2.481941e+000 -1.212001e+001 217 165 98
2.820285e+000 2.627792e+000 -1.200035e+001 247 207 138
2.176016e-001 1.476361e+000 -5.720601e+000 82 68 55
4.320353e-001 2.025845e-001 -6.566393e+000 98 82 61
2.785201e+000 2.401106e+000 -1.216187e+001 2 4 1
3.005978e+000 2.587932e+000 -1.205402e+001 44 23 17
2.985537e+000 2.656442e+000 -1.207135e+001 242 202 138
3.145333e+000 2.663639e+000 -1.203043e+001 41 16 8
4.996883e-002 1.536339e+000 -6.143348e+000 221 196 155
4.203960e+000 1.795467e+000 -1.292350e+001 110 89 72
4.203960e+000 1.795467e+000 -1.292350e+001 110 89 72
3.048808e-001 1.117544e+000 -6.272380e+000 53 43 23
3.022896e+000 2.632773e+000 -1.195497e+001 230 177 106
2.803576e+000 2.705005e+000 -1.193029e+001 213 159 87
4.346770e-001 -1.052798e-001 -6.627399e+000 90 83 56
3.762672e-001 3.371851e-001 -6.359420e+000 120 108 81
4.315623e-001 4.903771e-001 -6.469676e+000 91 79 60
4.112107e-001 9.133593e-001 -6.259392e+000 24 24 24
4.787037e-001 1.050092e+000 -6.041651e+000 167 148 115
2.727877e-001 1.116895e+000 -6.289344e+000 226 204 156
2.732910e+000 2.215071e+000 -1.217616e+001 168 103 43
2.643550e-001 1.149430e+000 -6.167278e+000 228 195 149
2.886230e+000 2.392404e+000 -1.219430e+001 62 27 14
2.886230e+000 2.392404e+000 -1.219430e+001 62 27 14
3.137442e+000 2.388010e+000 -1.213132e+001 213 152 93
2.736006e+000 2.654676e+000 -1.201386e+001 223 163 103
3.139765e+000 2.682407e+000 -1.202752e+001 22 6 3
3.139765e+000 2.682407e+000 -1.202752e+001 22 6 3
2.765470e+000 2.719489e+000 -1.209250e+001 57 24 5
5.371360e+000 2.015199e+000 -8.316319e+000 108 99 90
4.926895e-001 1.259994e+000 -5.795310e+000 180 138 95
5.616698e-001 -1.193167e-001 -6.451030e+000 27 22 12
6.296288e-001 -1.380332e-001 -6.446870e+000 89 91 75
4.392428e-001 -8.015534e-002 -6.607334e+000 87 80 68
4.378735e-001 -7.969865e-002 -6.606198e+000 87 80 68
5.115639e+000 8.560992e-001 -8.712778e+000 141 119 86
2.727878e-001 1.104347e+000 -6.292537e+000 209 186 152
2.806408e-001 1.119547e+000 -6.280582e+000 67 53 17
4.964908e-001 1.090836e+000 -5.997072e+000 140 105 67
2.563679e-001 1.149176e+000 -6.199091e+000 63 39 16
3.200066e+000 2.257788e+000 -1.220047e+001 214 158 91
3.178049e+000 2.435304e+000 -1.211814e+001 41 8 4
2.943464e+000 2.502453e+000 -1.207206e+001 22 6 4
2.737540e+000 2.511495e+000 -1.212646e+001 30 7 9
2.995116e+000 2.634299e+000 -1.212955e+001 202 155 79
2.699601e+000 2.607815e+000 -1.207234e+001 236 187 123
3.009795e+000 2.614611e+000 -1.201990e+001 33 6 5
2.762453e+000 2.620738e+000 -1.204014e+001 59 26 7
2.762453e+000 2.620738e+000 -1.204014e+001 59 26 7
2.872080e+000 2.721309e+000 -1.189661e+001 175 127 73
5.381841e+000 2.002167e+000 -8.285477e+000 15 11 13
2.974928e+000 2.545731e+000 -1.062907e+001 126 109 83
2.974928e+000 2.545731e+000 -1.062907e+001 126 109 83
2.631595e+000 2.560722e+000 -1.067518e+001 172 156 131
3.805597e-001 1.469819e+000 -6.495140e+000 109 86 60
1.760634e-001 1.390605e+000 -5.877676e+000 251 219 170
3.583900e-001 1.458926e+000 -5.666741e+000 98 88 63
-8.176395e-004 1.526357e+000 -5.980245e+000 107 95 68
8.855451e-002 1.489410e+000 -5.833375e+000 204 188 152
8.697602e-002 1.495221e+000 -5.831824e+000 121 111 83
4.284862e-001 -1.028155e-001 -6.608393e+000 75 69 50
6.421059e-001 1.469714e-001 -6.377679e+000 25 24 23
5.250191e-001 4.582596e-001 -6.336619e+000 133 122 92
3.141817e+000 2.334141e+000 -1.224105e+001 227 183 120
3.159426e+000 2.356559e+000 -1.217269e+001 76 31 6
2.746068e+000 2.465375e+000 -1.208681e+001 52 22 9
2.776893e+000 2.477884e+000 -1.200856e+001 255 211 150
3.081095e+000 2.511181e+000 -1.197283e+001 242 195 128
2.965260e+000 2.571218e+000 -1.208596e+001 19 5 0
2.652414e+000 2.610951e+000 -1.210017e+001 248 192 125
2.912633e+000 2.627189e+000 -1.204615e+001 89 41 19
2.693217e+000 2.721199e+000 -1.203348e+001 229 178 111
2.542722e+000 2.543227e+000 -1.060053e+001 219 203 177
2.565145e+000 2.563376e+000 -1.056928e+001 231 211 187
3.753715e-001 1.323208e+000 -5.994854e+000 252 218 170
2.816282e-001 1.483751e+000 -6.298086e+000 221 195 146
2.819960e-001 1.498739e+000 -6.298069e+000 205 181 135
1.568332e-001 1.393447e+000 -5.891633e+000 241 209 160
5.102110e-001 1.466786e+000 -5.650909e+000 171 161 134
3.990005e-001 1.459461e+000 -5.658814e+000 186 172 143
-1.841540e-002 1.551398e+000 -6.076507e+000 80 68 51
4.863450e-001 1.473198e+000 -5.651108e+000 106 99 73
4.394781e-001 1.711785e-001 -6.553883e+000 85 82 66
4.237039e-001 7.515063e-001 -6.463838e+000 95 86 69
4.208349e+000 1.865508e+000 -1.276705e+001 84 66 48
4.157270e+000 1.954609e+000 -1.293479e+001 64 49 40
3.146305e+000 2.237238e+000 -1.238672e+001 77 38 1
3.146305e+000 2.237238e+000 -1.238672e+001 77 38 1
3.148629e+000 2.389764e+000 -1.200075e+001 191 143 97
2.904611e+000 2.408424e+000 -1.208162e+001 193 131 57
3.104915e+000 2.479838e+000 -1.204601e+001 251 203 145
3.038147e+000 2.479309e+000 -1.193486e+001 164 112 51
3.038147e+000 2.479309e+000 -1.193486e+001 164 112 51
2.671631e+000 2.626647e+000 -1.208540e+001 178 119 51
5.376074e+000 1.963068e+000 -8.301823e+000 33 21 26
2.512428e+000 2.753925e+000 -1.192419e+001 150 121 93
2.943571e+000 2.555125e+000 -1.057501e+001 193 177 151
2.152803e+000 2.544432e+000 -1.063496e+001 249 230 198
2.405234e-002 1.685440e+000 -6.610029e+000 86 69 40
1.008780e-001 1.500860e+000 -5.965371e+000 176 147 103
1.008780e-001 1.500860e+000 -5.965371e+000 176 147 103
5.712386e-001 1.473705e+000 -5.656860e+000 92 78 51
9.535062e-002 1.488225e+000 -5.823289e+000 223 207 171
1.548327e-001 1.487294e+000 -5.764032e+000 108 94 68
9.540966e-002 1.503870e+000 -5.826206e+000 112 100 74
5.665533e-001 -1.359237e-001 -6.468235e+000 12 7 2
4.227174e-001 -8.496450e-003 -6.604702e+000 84 81 66
5.097350e-001 8.300052e-001 -6.264271e+000 148 134 107
2.095435e-001 1.086144e+000 -6.320675e+000 236 213 164
2.444327e-001 1.138670e+000 -6.304324e+000 33 6 3
2.844327e+000 2.267148e+000 -1.221624e+001 244 190 133
3.107672e+000 2.334563e+000 -1.224868e+001 227 182 128
2.657171e+000 2.335896e+000 -1.213314e+001 238 179 118
3.243065e+000 2.361448e+000 -1.211708e+001 232 187 130
2.980519e+000 2.458231e+000 -1.189638e+001 255 209 154
3.017815e+000 2.552051e+000 -1.214907e+001 70 26 0
2.577896e-001 1.231515e+000 -6.186619e+000 177 145 104
3.033285e+000 2.494840e+000 -1.184899e+001 228 178 119
2.611895e+000 2.595471e+000 -1.213869e+001 196 129 56
2.766238e+000 2.680024e+000 -1.196867e+001 53 14 0
2.785841e+000 2.713258e+000 -1.189669e+001 255 210 157
4.918393e-001 1.211938e+000 -5.783951e+000 74 44 8
4.918393e-001 1.211938e+000 -5.783951e+000 74 44 8
2.521593e-001 1.332436e+000 -6.194078e+000 224 189 147
2.646758e+000 2.585789e+000 -1.059417e+001 192 172 145
3.595952e-001 1.272875e+000 -5.827733e+000 201 173 131
2.808215e-001 1.386023e+000 -6.080635e+000 247 215 167
2.217351e-001 1.468036e+000 -5.715524e+000 98 83 58
1.781734e-001 1.478730e+000 -5.745460e+000 172 158 130
1.623973e-001 1.485848e+000 -5.757264e+000 121 106 82
1.132225e-002 1.544904e+000 -5.970121e+000 91 80 50
1.227955e-001 1.497069e+000 -5.792333e+000 168 158 133
-5.318844e-001 1.468229e+000 -5.767047e+000 46 48 45
3.183776e-001 4.780775e-001 -6.240252e+000 88 73 44
5.081242e-001 5.942345e-001 -6.315795e+000 149 136 104
5.081242e-001 5.942345e-001 -6.315795e+000 149 136 104
4.265962e-001 9.195011e-001 -6.468468e+000 81 74 59
4.723063e-001 1.046756e+000 -6.056375e+000 63 48 24
4.308614e-001 1.122973e+000 -6.368131e+000 96 87 70
3.196360e+000 2.234207e+000 -1.230873e+001 90 50 9
3.057274e+000 2.301669e+000 -1.234590e+001 46 8 0
2.585266e+000 2.509048e+000 -1.219535e+001 248 194 134
2.836855e+000 2.487247e+000 -1.204650e+001 255 204 137
3.132182e+000 2.511702e+000 -1.192496e+001 238 180 121
2.807109e+000 2.637883e+000 -1.198817e+001 255 231 164
2.674064e+000 2.754324e+000 -1.206475e+001 249 197 133
2.559030e-001 1.328402e+000 -6.170448e+000 161 128 85
2.624966e+000 2.550191e+000 -1.054794e+001 145 128 103
2.532716e-001 1.343440e+000 -6.213295e+000 131 103 64
2.111450e-001 1.387947e+000 -5.845268e+000 195 163 114
-2.220027e-003 1.530073e+000 -5.984576e+000 79 67 44
1.274727e-001 1.482827e+000 -5.793645e+000 222 201 170
2.476240e-002 1.518498e+000 -5.922231e+000 176 165 147
4.188000e-001 -2.429685e-002 -6.412330e+000 80 71 56
5.656937e-001 7.809465e-002 -6.433139e+000 150 137 113
4.189020e-001 4.005719e-001 -6.355352e+000 88 77 55
3.386560e-001 1.302723e-001 -6.340838e+000 28 26 27
4.900435e-001 1.465297e+000 -5.651654e+000 146 139 123
4.260508e-001 1.098111e-001 -6.405855e+000 2 1 0
5.180833e-001 1.051858e+000 -6.003529e+000 212 198 158
6.923854e-001 1.483317e+000 -5.758572e+000 200 182 157
4.935330e-001 1.269900e-001 -6.426338e+000 166 149 121
4.947550e-001 1.768665e-001 -6.420544e+000 161 144 115
4.702491e-001 8.571915e-001 -6.269852e+000 92 80 68
-1.087619e+000 1.157565e+000 -8.697937e+000 46 20 3
6.734679e-001 1.196893e+000 -6.096316e+000 182 158 122
7.138978e-001 1.388648e+000 -5.823956e+000 176 142 104
1.078474e+000 1.707799e+000 -6.603253e+000 210 179 133
5.941450e-001 4.032798e-002 -6.468667e+000 152 174 217
4.770104e-001 4.470125e-002 -6.446375e+000 87 74 57
4.519559e-001 6.027233e-001 -6.294893e+000 135 120 97
4.871298e-001 7.672868e-001 -6.291029e+000 164 153 123
1.074696e+000 2.698621e+000 -1.127340e+001 220 199 168
-3.001577e-001 1.627056e+000 -6.457959e+000 203 185 165
5.859798e-001 -1.255410e-001 -6.459991e+000 161 145 128
4.257758e-001 -5.913195e-002 -6.402147e+000 7 4 5
5.322350e-001 4.133006e-002 -6.440801e+000 152 136 110
4.175693e-001 2.045891e-001 -6.353167e+000 85 73 51
5.248027e-001 3.447673e-001 -6.367125e+000 168 154 128
-1.641108e+000 4.235811e-001 -9.145889e+000 198 204 227
4.885515e-001 6.443406e-001 -6.318620e+000 179 165 136
-1.660720e+000 4.793702e-001 -9.133753e+000 86 69 16
4.867436e-001 7.910152e-001 -6.288663e+000 187 176 144
-1.160135e+000 1.176854e+000 -8.765823e+000 176 132 65
6.649595e-001 1.143111e+000 -6.417126e+000 21 14 6
6.011863e-001 1.115282e+000 -6.047517e+000 108 82 49
6.618426e-001 1.140374e+000 -6.091262e+000 138 116 92
3.281832e-001 1.374188e+000 -5.779336e+000 230 198 151
7.808895e-001 1.545704e+000 -6.238344e+000 95 81 70
9.058378e-001 1.507874e+000 -5.885676e+000 56 46 36
5.024159e-001 -1.459052e-001 -6.497717e+000 17 12 8
4.846189e-001 -1.373181e-001 -6.468541e+000 15 11 8
5.336988e-001 5.677076e-001 -6.326680e+000 45 36 29
4.653273e-001 6.233034e-001 -6.310234e+000 119 105 79
4.653273e-001 6.233034e-001 -6.310234e+000 119 105 79
-1.668120e+000 4.337951e-001 -9.132885e+000 97 81 35
4.779534e-001 7.823908e-001 -6.284785e+000 75 62 38
4.688345e-001 8.344863e-001 -6.262153e+000 77 64 47
4.829251e-001 9.553609e-001 -6.252214e+000 13 10 1
5.715881e-001 2.298209e+000 -1.368095e+001 135 111 79
4.904558e-001 1.082464e+000 -5.999541e+000 253 238 205
5.730596e-001 1.092629e+000 -6.019593e+000 137 104 70
3.920452e-001 1.094038e+000 -6.021780e+000 165 132 91
6.509239e-001 1.168642e+000 -6.074064e+000 233 204 169
1.460523e+000 2.721517e+000 -1.321596e+001 138 107 56
6.605910e-001 1.204978e+000 -6.070746e+000 149 124 94
7.764475e-001 1.448251e+000 -6.258739e+000 118 98 74
7.843320e-001 1.456284e+000 -6.259877e+000 249 215 167
7.757163e-001 1.460855e+000 -6.256152e+000 113 96 71
7.826506e-001 1.474029e+000 -6.263735e+000 239 210 162
7.759460e-001 1.476840e+000 -6.251647e+000 111 95 71
8.724593e-001 1.555538e+000 -6.265985e+000 118 100 80
7.148456e-001 1.471740e+000 -5.716942e+000 88 75 60
4.837009e-001 -9.601331e-002 -6.473671e+000 86 75 55
5.577586e-001 1.985200e-002 -6.426603e+000 135 127 108
4.331868e-001 6.352315e-002 -6.403271e+000 62 49 32
4.746236e-001 9.423801e-002 -6.425774e+000 124 112 90
4.890553e-001 1.409223e-001 -6.431849e+000 172 156 128
4.103645e-001 4.404466e-001 -6.298251e+000 80 67 47
4.309187e-001 4.775886e-001 -6.307760e+000 118 110 90
-1.626767e+000 4.428074e-001 -9.168145e+000 100 86 32
4.619943e-001 8.029250e-001 -6.276516e+000 59 51 38
4.881404e-001 8.348966e-001 -6.276339e+000 170 155 126
-9.844998e-001 1.019407e+000 -8.700533e+000 48 26 2
-1.780769e+000 1.235061e+000 -8.699864e+000 220 188 137
-1.780769e+000 1.235061e+000 -8.699864e+000 220 188 137
4.894736e-001 1.026983e+000 -6.005771e+000 228 211 168
1.341515e+000 2.625684e+000 -1.339087e+001 55 25 2
1.404355e+000 2.647616e+000 -1.338154e+001 66 31 5
1.436806e+000 2.712904e+000 -1.329596e+001 64 43 4
6.530024e-001 1.200349e+000 -6.071313e+000 225 193 155
7.839890e-001 1.389220e+000 -6.274105e+000 238 213 171
6.684515e-001 1.338397e+000 -5.804103e+000 205 173 134
4.842543e-001 -1.583081e-001 -6.490851e+000 66 58 46
4.819955e-001 -6.913461e-002 -6.467682e+000 65 54 30
4.728657e-001 1.477536e-001 -6.407849e+000 37 24 8
4.816847e-001 4.912315e-001 -6.350421e+000 95 79 54
4.541753e-001 5.153565e-001 -6.323836e+000 80 68 42
-1.617939e+000 4.642592e-001 -9.164457e+000 203 177 116
3.665751e-001 6.682681e-001 -6.214201e+000 66 55 37
3.549958e-001 6.912427e-001 -6.198654e+000 125 109 86
3.549958e-001 6.912427e-001 -6.198654e+000 125 109 86
3.372713e-001 7.961628e-001 -6.162530e+000 77 60 42
-1.082869e+000 9.151842e-001 -8.792465e+000 173 151 91
-9.843998e-001 1.001267e+000 -8.720309e+000 120 101 49
-1.092001e+000 1.013925e+000 -8.762250e+000 184 143 87
-1.180674e+000 1.026707e+000 -8.806053e+000 207 168 116
-1.180674e+000 1.026707e+000 -8.806053e+000 207 168 116
-1.373521e+000 1.052880e+000 -8.770897e+000 205 175 103
-1.781171e+000 1.217441e+000 -8.704785e+000 52 25 0
4.773325e-001 9.944920e-001 -6.005178e+000 199 175 146
4.878110e-001 1.032119e+000 -5.995501e+000 90 68 38
5.746186e-001 1.111881e+000 -6.032464e+000 117 82 54
1.459693e+000 2.604494e+000 -1.318327e+001 79 57 11
-2.661079e+000 2.489178e+000 -1.045489e+001 28 15 6
1.023812e+000 2.678852e+000 -1.118568e+001 213 193 158
-1.940733e+000 2.356471e+000 -9.894369e+000 237 204 171
-2.159384e+000 2.536680e+000 -1.053194e+001 36 19 6
-4.083000e-001 1.638241e+000 -6.520328e+000 185 186 169
1.072435e+000 1.674863e+000 -6.633463e+000 207 200 179
4.533539e-001 -1.911180e-002 -6.440901e+000 114 102 86
4.845483e-001 3.512410e-002 -6.448687e+000 77 71 45
4.408646e-001 7.736809e-002 -6.408277e+000 123 115 94
3.200304e-001 2.120932e-001 -6.280459e+000 176 162 141
4.879876e-001 5.461730e-001 -6.336069e+000 164 149 120
4.385563e-001 5.941828e-001 -6.290464e+000 69 57 33
4.405631e-001 6.130065e-001 -6.286810e+000 81 67 42
-1.468614e+000 3.923200e-001 -9.357382e+000 89 95 85
3.737030e-001 6.897684e-001 -6.214687e+000 82 69 52
3.446013e-001 7.505669e-001 -6.174638e+000 121 105 89
3.638166e-001 7.629087e-001 -6.193419e+000 66 53 34
3.431064e-001 7.952063e-001 -6.167939e+000 120 104 85
7.107716e-002 1.014972e+000 -1.024837e+001 42 32 23
5.559675e-001 1.019414e+000 -6.212553e+000 152 137 118
5.522857e-001 1.037432e+000 -6.000382e+000 93 75 53
2.047488e-001 1.093080e+000 -6.333824e+000 81 61 32
1.505492e+000 2.739967e+000 -1.320524e+001 120 102 75
6.708090e-001 1.223001e+000 -5.835285e+000 87 62 32
-2.821476e+000 2.545825e+000 -1.039179e+001 41 21 0
9.335663e-001 1.720947e+000 -6.828468e+000 108 110 117
8.722196e-001 1.498143e+000 -5.842609e+000 64 48 32
6.931606e-001 1.467905e+000 -5.699435e+000 118 108 90
5.105425e-001 1.457210e+000 -5.647924e+000 115 103 81
7.502502e-001 1.490754e+000 -5.732896e+000 92 79 60
4.556921e-001 -7.860455e-002 -6.441757e+000 114 108 94
4.439140e-001 -7.439700e-002 -6.434940e+000 53 48 29
3.815362e-001 -6.042554e-002 -6.377068e+000 74 66 45
4.798218e-001 -7.937621e-002 -6.468073e+000 122 113 90
4.389762e-001 1.291449e-001 -6.382627e+000 52 43 33
4.485777e-001 1.465008e-001 -6.393968e+000 121 109 87
4.232647e-001 3.008792e-001 -6.338875e+000 127 112 89
4.657419e-001 6.186187e-001 -6.307472e+000 126 111 90
4.808941e-001 7.120488e-001 -6.301960e+000 69 57 35
4.844236e-001 7.151327e-001 -6.301840e+000 173 159 133
4.851207e-001 7.860568e-001 -6.286883e+000 175 164 134
6.438812e-001 8.050708e-001 -6.226169e+000 168 152 127
3.319925e-001 8.004495e-001 -6.156827e+000 123 108 87
2.124928e-001 1.071550e+000 -6.336008e+000 61 43 19
6.592977e-001 1.111393e+000 -6.365009e+000 162 149 126
1.472545e+000 2.696737e+000 -1.317744e+001 82 54 13
-1.948588e+000 2.286445e+000 -9.922739e+000 170 146 131
5.898645e-001 1.210738e+000 -5.794958e+000 253 226 194
6.174874e-001 1.215726e+000 -5.805107e+000 101 77 42
6.174874e-001 1.215726e+000 -5.805107e+000 101 77 42
-2.693446e+000 2.492718e+000 -1.043543e+001 35 5 0
8.905112e-001 1.504980e+000 -5.867051e+000 144 135 118
4.084304e-001 1.463966e+000 -5.662685e+000 205 191 162
5.630596e-001 1.015522e-001 -6.415987e+000 130 115 86
5.723756e-001 -1.245910e-001 -6.460786e+000 26 16 5
4.764219e-001 1.066546e+000 -6.055076e+000 194 173 144
5.684050e-001 1.107638e-001 -6.408253e+000 117 112 87
1.127368e-001 1.412532e+000 -5.959229e+000 184 152 101
2.230916e-001 1.478004e+000 -5.818577e+000 191 158 105
6.906237e-002 1.508149e+000 -5.851804e+000 163 157 135
6.921025e-002 1.508266e+000 -5.851966e+000 163 157 135
1.581688e-001 1.487395e+000 -5.759923e+000 158 143 119
3.074241e-001 2.317352e-001 -6.296446e+000 59 44 25
4.776215e-001 1.259859e+000 -5.971877e+000 214 182 141
2.595123e-001 1.480656e+000 -5.693533e+000 69 58 40
5.559892e-001 1.684876e-002 -6.436934e+000 122 111 86
-7.943872e+000 5.476203e+000 -2.724328e+001 10 25 31
4.252603e-001 3.905472e-001 -6.323637e+000 57 49 28
1.424083e+001 -3.941926e+000 -1.838734e+001 132 128 125
1.417507e+001 -3.103940e+000 -1.798592e+001 177 161 131
1.434291e+001 -2.899765e+000 -1.828544e+001 88 74 58
1.448037e+001 -2.084206e+000 -1.789671e+001 255 241 189
1.462265e+001 -4.065298e+000 -1.835228e+001 250 232 157
1.466500e+001 -3.719771e+000 -1.845760e+001 239 226 192
1.470350e+001 -3.413634e+000 -1.752514e+001 185 147 100
1.391084e+001 -3.865831e+000 -1.843258e+001 254 239 158
1.459620e+001 -1.730747e+000 -1.787749e+001 240 223 153
1.407739e+001 -3.840265e+000 -1.947122e+001 74 55 49
1.437096e+001 -2.208990e+000 -1.800650e+001 142 127 99
1.451932e+001 -2.379553e+000 -1.784888e+001 106 75 49
1.429089e+001 -1.721513e+000 -1.779881e+001 132 122 87
3.997565e-001 9.455324e-001 -6.248651e+000 25 24 21
1.470161e+001 -4.091560e+000 -1.787311e+001 62 45 29
1.469293e+001 -3.936818e+000 -1.834087e+001 92 61 40
1.465867e+001 -3.870016e+000 -1.820223e+001 240 204 150
1.463624e+001 -3.639514e+000 -1.708626e+001 66 47 43
1.453953e+001 -3.476595e+000 -1.700496e+001 110 66 53
1.417345e+001 -3.233078e+000 -1.824196e+001 244 232 206
1.481472e+001 -3.267451e+000 -1.808681e+001 67 45 36
1.472001e+001 -3.242503e+000 -1.800719e+001 67 45 36
1.400867e+001 -3.037185e+000 -1.812217e+001 255 246 213
1.487927e+001 -2.897147e+000 -1.816345e+001 202 172 119
1.466333e+001 -2.483252e+000 -1.750378e+001 66 38 17
4.061061e-001 9.292447e-001 -6.251582e+000 25 26 20
4.657379e-002 1.501954e+000 -5.890385e+000 189 173 147
1.399095e+001 -4.230928e+000 -1.942126e+001 87 76 72
1.473879e+001 -3.960079e+000 -1.752207e+001 117 107 87
1.468751e+001 -3.999231e+000 -1.829503e+001 251 232 167
1.478849e+001 -4.031620e+000 -1.838221e+001 251 232 167
1.448729e+001 -3.786471e+000 -1.710521e+001 105 89 72
1.468973e+001 -3.896236e+000 -1.782044e+001 64 50 32
1.467024e+001 -3.801228e+000 -1.707460e+001 82 54 32
1.463128e+001 -3.499448e+000 -1.820464e+001 91 62 35
1.471322e+001 -3.277516e+000 -1.698797e+001 80 53 28
1.461802e+001 -1.995396e+000 -1.682194e+001 67 51 35
1.453683e+001 -1.720504e+000 -1.663078e+001 253 238 212
1.492348e+001 -1.705729e+000 -1.782747e+001 63 45 38
1.493678e+001 -1.476687e+000 -1.790001e+001 223 213 198
3.632904e-001 1.096929e+000 -6.035090e+000 162 133 93
3.796353e-001 1.318274e+000 -5.990783e+000 43 14 1
1.716582e-001 1.479883e+000 -5.751757e+000 162 148 119
1.448431e+001 -4.432952e+000 -1.933300e+001 81 63 55
1.449161e+001 -4.152504e+000 -1.721138e+001 205 192 146
1.450431e+001 -4.075031e+000 -1.720268e+001 210 197 152
1.433834e+001 -3.812933e+000 -2.012074e+001 120 106 102
1.433834e+001 -3.812933e+000 -2.012074e+001 120 106 102
1.435969e+001 -3.682824e+000 -1.988534e+001 126 102 91
1.429218e+001 -3.195393e+000 -1.808653e+001 166 151 124
1.429218e+001 -3.195393e+000 -1.808653e+001 166 151 124
1.475491e+001 -2.388399e+000 -2.001157e+001 121 108 99
1.395321e+001 -2.007412e+000 -1.796377e+001 159 136 89
1.449204e+001 -1.805761e+000 -1.774011e+001 100 64 32
4.755880e-001 1.056613e+000 -6.048188e+000 40 24 7
3.757020e-001 1.457982e+000 -6.504400e+000 227 194 151
1.809011e-001 1.349856e+000 -5.882646e+000 253 231 184
1.494389e+001 -4.184420e+000 -1.846127e+001 180 133 89
1.484229e+001 -3.449054e+000 -1.812230e+001 43 23 7
1.491069e+001 -1.554469e+000 -1.780473e+001 103 77 44
2.544282e-001 1.230013e+000 -6.182178e+000 177 145 104
4.884915e-001 1.209423e+000 -5.788046e+000 223 193 157
-8.240183e-003 1.548302e+000 -6.002288e+000 92 78 51
1.451723e+001 -3.465280e+000 -1.990744e+001 66 50 37
1.488803e+001 -2.991660e+000 -1.805254e+001 50 18 1
1.448692e+001 -2.857375e+000 -1.797081e+001 65 32 2
1.456167e+001 -1.853756e+000 -1.973487e+001 127 109 87
3.888245e-001 9.590037e-001 -6.244957e+000 110 106 94
8.042697e-002 1.445290e+000 -6.021601e+000 198 166 115
5.091965e-002 1.543399e+000 -6.101757e+000 165 132 91
1.019712e-001 1.499822e+000 -5.813421e+000 189 177 151
4.969662e-001 1.044630e+000 -5.996917e+000 111 85 58
8.108809e-001 1.501691e+000 -6.255638e+000 247 215 162
4.180764e-001 -5.041208e-002 -6.419876e+000 80 73 55
-1.026083e+000 3.368011e-001 -1.009228e+001 189 197 219
6.952954e-001 1.462772e+000 -5.705564e+000 207 189 165
5.097528e-001 1.465329e+000 -5.648065e+000 169 161 142
4.396662e-001 9.384175e-002 -6.404398e+000 123 115 95
4.462449e-001 4.935185e-001 -6.318686e+000 66 58 38
7.929492e-001 1.247491e+000 -6.313875e+000 163 147 131
6.312999e-001 1.259289e+000 -6.033961e+000 201 163 120
7.727114e-001 1.480754e+000 -5.755327e+000 103 88 70
5.848129e-001 1.460827e+000 -5.663532e+000 111 98 82
4.853199e-001 8.259262e-001 -6.280884e+000 159 148 120
5.240971e-001 1.087546e+000 -6.001001e+000 165 130 95
7.163123e-001 1.374510e+000 -5.828477e+000 195 162 121
4.328977e-001 6.804478e-002 -6.403048e+000 75 59 43
4.779983e-001 1.212761e-001 -6.431202e+000 80 68 44
5.257414e-001 6.415676e-001 -6.306601e+000 153 141 117
7.308289e-001 1.407105e+000 -5.830904e+000 252 223 183
7.308289e-001 1.407105e+000 -5.830904e+000 252 223 183
4.877845e-001 5.323573e-001 -6.343987e+000 175 160 131
3.337787e-001 7.835417e-001 -6.164346e+000 76 61 42
3.337787e-001 7.835417e-001 -6.164346e+000 76 61 42
4.752638e-001 9.270395e-001 -6.253966e+000 46 43 24
3.479428e-001 1.380700e+000 -9.889375e+000 193 168 104
5.537707e-001 9.921971e-001 -6.014261e+000 195 179 155
7.957414e-001 1.485774e+000 -6.259844e+000 254 222 175
6.401360e-001 1.463331e+000 -5.679162e+000 197 182 162
6.434313e-001 1.467363e+000 -5.680288e+000 111 100 79
5.669433e-001 1.474644e+000 -5.652055e+000 115 101 75
4.826105e-001 5.445014e-001 -6.339542e+000 98 82 56
4.546418e-001 6.908691e-001 -6.284919e+000 76 67 43
3.412816e-001 7.748346e-001 -6.170642e+000 130 115 96
6.825821e-001 1.211332e+000 -6.100463e+000 100 75 55
7.129067e-001 1.454843e+000 -5.807146e+000 254 226 188
5.975482e-001 1.460412e+000 -5.662983e+000 105 93 79
1.072772e+000 1.430964e+000 -5.575154e+000 109 94 71
1.390808e+001 -2.796027e+000 -1.819593e+001 251 239 160
1.409596e+001 -3.605304e+000 -1.826417e+001 246 231 199
3.037055e+000 1.556774e+000 -8.711109e+000 132 102 41
1.431348e+001 -3.748667e+000 -1.823391e+001 134 118 102
1.455953e+001 -3.812439e+000 -2.037474e+001 130 114 92
1.444589e+001 -2.834784e+000 -1.991932e+001 237 216 195
1.431415e+001 -5.569826e-001 -1.923839e+001 59 44 29
1.435631e+001 -5.612360e-001 -1.928025e+001 59 44 29
1.440638e+001 -3.269816e+000 -1.991875e+001 60 43 35
1.439148e+001 -1.232364e+000 -1.946803e+001 74 62 47
3.073948e+000 1.495010e+000 -8.719624e+000 130 108 60
1.427032e+001 -3.233228e+000 -1.980494e+001 69 55 45
6.622418e-001 5.034394e-001 -6.311089e+000 116 110 90
1.435976e+001 -3.582977e+000 -1.824296e+001 247 236 204
1.438340e+001 -3.353299e+000 -1.984966e+001 158 147 141
1.601596e-001 1.491639e+000 -5.870705e+000 241 210 164
1.033177e-001 1.494936e+000 -6.029818e+000 226 198 150
3.193570e-001 1.289846e+000 -5.801796e+000 255 251 208
3.728931e-001 1.346869e+000 -5.999798e+000 251 221 161
4.336068e-001 -2.198411e-002 -6.624848e+000 74 69 47
3.844848e-001 1.354727e+000 -5.975697e+000 127 97 59
4.238087e-001 5.377833e-001 -6.461735e+000 71 58 41
4.505211e-001 1.968274e-001 -6.636487e+000 13 9 5
4.862972e-001 1.066209e+000 -6.043233e+000 90 67 49
4.597740e+000 2.348896e+000 -1.201737e+001 22 16 10
4.597740e+000 2.348896e+000 -1.201737e+001 22 16 10
4.448465e-001 -9.815101e-002 -6.616705e+000 8 5 0
4.373266e-001 4.459209e-001 -6.483654e+000 86 68 54
4.359082e-001 4.787988e-001 -6.499594e+000 68 62 50
2.806290e-001 1.118811e+000 -6.280802e+000 68 51 32
2.568980e-001 1.190817e+000 -6.271276e+000 168 146 115
9.757831e-002 1.424222e+000 -5.981773e+000 247 219 170
2.725403e-001 1.116895e+000 -6.289209e+000 237 217 164
1.276614e+000 1.087730e+000 -6.077282e+000 243 233 199
2.365148e-001 1.151285e+000 -6.287806e+000 101 76 47
4.726809e+000 2.327662e+000 -1.204229e+001 27 12 1
4.448135e+000 2.401297e+000 -1.188619e+001 37 22 1
3.387374e+000 2.485807e+000 -1.026597e+001 55 34 13
4.733850e-001 1.296813e+000 -5.974939e+000 255 232 176
5.839121e-001 7.450373e-003 -6.437926e+000 137 128 98
4.583624e+000 2.293894e+000 -1.207578e+001 139 108 71
3.401567e+000 2.460825e+000 -1.049757e+001 63 43 18
4.030117e-002 1.508512e+000 -5.892624e+000 102 87 61
4.901071e-001 5.545752e-002 -6.618429e+000 155 165 185
4.901071e-001 5.545752e-002 -6.618429e+000 155 165 185
4.231182e-001 2.638446e-001 -6.661663e+000 156 173 194
4.741758e-001 1.040577e+000 -6.055110e+000 168 151 125
2.405086e-001 1.142528e+000 -6.319722e+000 22 4 0
3.950950e-001 1.092238e+000 -6.014114e+000 149 112 67
4.925883e-001 1.225755e+000 -5.821117e+000 215 186 146
3.373320e+000 2.467751e+000 -1.053844e+001 69 43 8
3.491419e+000 2.493487e+000 -1.035505e+001 135 119 84
3.558477e+000 2.497142e+000 -1.033978e+001 64 43 12
2.570624e-002 1.507853e+000 -5.920001e+000 204 187 160
4.346891e-001 2.889475e-001 -6.602719e+000 23 15 5
4.795588e-001 1.013228e+000 -6.007835e+000 72 61 41
3.715202e-001 1.479598e+000 -6.495509e+000 226 201 158
-2.162926e-001 1.446406e+000 -5.672766e+000 204 188 154
3.135772e-001 1.179612e-001 -6.357220e+000 94 79 56
4.427031e-001 1.618213e-001 -6.547589e+000 123 115 108
4.327932e-001 5.577205e-001 -6.326732e+000 123 116 83
3.964572e-001 9.547225e-001 -6.242154e+000 126 115 98
2.505394e-001 1.134951e+000 -6.288180e+000 62 37 4
2.786172e-001 1.440913e+000 -6.299152e+000 223 198 168
1.923368e-001 1.341288e+000 -5.871514e+000 247 216 172
1.171931e-001 1.504880e+000 -5.928752e+000 197 170 121
1.760764e-001 1.472185e+000 -5.747953e+000 210 193 163
8.543219e-001 1.288273e+000 -6.320520e+000 245 237 197
9.311507e-001 1.345332e+000 -6.325901e+000 21 15 16
3.757860e-001 4.137904e-001 -6.307933e+000 182 205 236
3.820458e-001 5.442675e-001 -6.355476e+000 191 211 236
3.867535e-001 -1.606376e-001 -6.418515e+000 88 72 58
7.954607e-001 1.303007e+000 -6.294456e+000 153 137 117
6.484785e-001 1.461465e+000 -5.700196e+000 215 196 165
6.411776e-001 1.279597e-001 -6.383785e+000 129 118 98
4.397377e-001 1.667636e-001 -6.402300e+000 120 110 90
3.255477e-001 4.968922e-001 -6.266912e+000 44 34 25
4.718976e-001 6.058383e-001 -6.320931e+000 97 84 62
7.733395e-001 1.401188e+000 -6.266947e+000 113 100 84
7.140715e-001 1.388544e+000 -5.823733e+000 169 136 95
7.050288e-002 6.910787e-001 -1.003827e+001 220 226 231
7.050288e-002 6.910787e-001 -1.003827e+001 220 226 231
5.396283e-001 1.048586e+000 -6.004738e+000 90 72 48
6.686803e-001 1.166025e+000 -6.108592e+000 211 188 157
6.331542e-001 1.331594e-001 -6.396443e+000 137 129 113
4.321006e-001 4.997269e-001 -6.301711e+000 103 95 75
4.536879e-001 5.055093e-001 -6.319726e+000 119 106 87
5.189047e-001 8.628276e-001 -6.260936e+000 143 129 109
5.779485e-001 4.530674e-001 -6.329266e+000 163 152 124
3.923158e-001 4.953960e-001 -6.272774e+000 128 116 100
-4.311759e-001 2.840268e-001 -1.013683e+001 54 52 39
4.915360e-001 6.061988e-001 -6.325997e+000 184 169 140
3.684551e-001 6.315007e-001 -6.226481e+000 106 88 70
4.261348e-001 -2.043733e-001 -6.455281e+000 71 70 63
4.846991e-001 -2.105794e-002 -6.480561e+000 159 145 124
3.985808e-001 1.948099e-001 -6.357689e+000 111 103 84
4.501598e-001 2.013660e-001 -6.391151e+000 114 105 81
4.740717e-001 7.401609e-001 -6.289635e+000 94 82 58
1.000445e-001 7.779049e-001 -9.952520e+000 73 67 33
1.000445e-001 7.779049e-001 -9.952520e+000 73 67 33
4.612120e-001 8.249365e-001 -6.261459e+000 131 125 104
6.340555e-001 1.096630e+000 -6.161107e+000 29 20 11
5.603602e-001 1.090763e+000 -6.007985e+000 141 110 79
6.304197e-001 1.156639e+000 -6.058571e+000 201 166 124
-2.936939e+000 1.828941e+000 -9.352789e+000 17 8 2
-2.882965e+000 1.848627e+000 -9.267096e+000 90 75 42
-2.929566e+000 1.960543e+000 -9.287247e+000 24 16 4
4.632551e-001 1.462028e+000 -5.653478e+000 187 174 155
7.418734e-001 1.479497e+000 -5.733960e+000 99 92 76
6.281673e-001 -8.241333e-002 -6.447913e+000 169 158 138
4.803187e-001 1.125921e-001 -6.435729e+000 93 85 64
5.868975e-001 2.056454e-001 -6.399075e+000 157 147 126
5.404405e-001 5.802486e-001 -6.321160e+000 167 156 133
4.823209e-001 6.634777e-001 -6.316630e+000 190 172 148
4.869640e-001 7.420871e-001 -6.298743e+000 175 161 132
4.862606e-001 1.033351e+000 -5.999125e+000 89 71 45
5.488583e-001 1.061618e+000 -5.996205e+000 214 187 173
-2.968108e+000 1.880681e+000 -9.298281e+000 14 6 0
-2.970094e+000 1.885815e+000 -9.263695e+000 77 66 45
-2.970094e+000 1.885815e+000 -9.263695e+000 77 66 45
6.776956e-001 1.205801e+000 -6.100636e+000 176 152 121
8.065064e-001 1.257417e+000 -6.309771e+000 168 147 123
7.834621e-001 1.409679e+000 -6.272974e+000 229 199 153
-2.183497e-001 1.502631e+000 -5.946139e+000 133 132 127
8.821937e-001 1.499129e+000 -5.855881e+000 101 93 80
3.422167e-001 1.454393e+000 -5.660406e+000 131 117 94
4.030721e-001 1.457525e+000 -5.653748e+000 205 189 163
7.363383e-001 1.480502e+000 -5.726372e+000 143 135 122
4.360546e-001 -1.882141e-002 -6.428187e+000 67 56 42
4.318241e-001 7.921229e-002 -6.409448e+000 64 56 37
4.104944e-001 5.015778e-001 -6.285467e+000 120 107 91
4.727113e-001 5.365405e-001 -6.333418e+000 84 72 50
4.753373e-001 5.739061e-001 -6.326886e+000 83 68 49
-4.124722e-001 2.833120e-001 -1.013098e+001 59 63 60
1.663231e-001 8.220394e-001 -9.983791e+000 205 185 135
4.755877e-001 7.962217e-001 -6.278009e+000 88 80 57
5.126569e-001 8.113222e-001 -6.275394e+000 116 101 71
1.176472e-001 9.961491e-001 -1.016345e+001 219 221 221
6.718440e-001 8.559392e-001 -6.217696e+000 28 23 20
-1.452622e+000 1.053037e+000 -8.447081e+000 241 190 142
-3.771828e+000 1.404828e+000 -1.011264e+001 252 251 210
5.574826e-001 1.053453e+000 -5.996383e+000 207 191 164
5.531633e-001 1.077886e+000 -6.032925e+000 238 221 202
-2.934017e+000 1.845042e+000 -9.348173e+000 26 17 1
-2.934017e+000 1.845042e+000 -9.348173e+000 26 17 1
-2.990577e+000 1.849300e+000 -9.281140e+000 41 30 6
-2.967618e+000 1.934655e+000 -9.289605e+000 86 75 52
6.540884e-001 1.244661e+000 -6.059092e+000 234 202 164
8.172738e-001 1.489736e+000 -5.788324e+000 125 112 93
7.065912e-001 1.472300e+000 -5.711505e+000 91 81 69
1.075784e+000 1.445733e+000 -5.641498e+000 149 134 105
4.349503e-001 -7.392088e-002 -6.443251e+000 110 106 94
4.420508e-001 6.533334e-003 -6.434967e+000 73 65 46
4.711630e-001 7.151353e-002 -6.445925e+000 74 61 42
4.370196e-001 8.386093e-002 -6.411754e+000 129 121 102
3.945145e-001 8.631930e-002 -6.376424e+000 128 120 99
3.682312e-001 1.846233e-001 -6.336984e+000 61 51 35
4.807265e-001 7.978837e-001 -6.282702e+000 87 80 52
2.735860e-001 1.123013e+000 -9.865263e+000 104 96 65
-1.596286e+000 1.165142e+000 -8.401858e+000 64 37 0
5.478116e-001 9.902940e-001 -6.015431e+000 90 70 45
4.852783e-001 1.007474e+000 -6.004621e+000 241 223 183
5.505356e-001 1.031629e+000 -6.004368e+000 102 82 52
5.945256e-001 1.119265e+000 -6.039746e+000 249 224 183
-2.979900e+000 1.845422e+000 -9.327735e+000 42 28 3
-2.967899e+000 1.891994e+000 -9.293051e+000 19 10 1
-2.900125e+000 1.925740e+000 -9.276194e+000 100 87 63
1.115557e+000 1.681139e+000 -6.715319e+000 105 104 91
1.123082e+000 1.678257e+000 -6.707702e+000 222 218 200
5.266865e-001 1.455119e+000 -5.644835e+000 151 137 110
7.534971e-001 1.487543e+000 -5.740692e+000 144 137 119
4.370836e-001 -3.089331e-003 -6.436973e+000 104 98 80
4.336767e-001 1.516757e-001 -6.400963e+000 130 117 98
3.647507e-001 1.818983e-001 -6.334418e+000 132 120 108
4.474902e-001 1.845847e-001 -6.394418e+000 55 42 26
5.684533e-001 2.908854e-001 -6.375590e+000 150 136 123
4.208895e-001 3.902182e-001 -6.319898e+000 138 130 108
4.164120e-001 4.500319e-001 -6.304117e+000 139 131 110
4.695192e-001 6.174611e-001 -6.314277e+000 77 65 44
-3.006306e-001 4.382822e-001 -1.039411e+001 57 64 72
4.730500e-001 6.661305e-001 -6.311704e+000 81 66 45
3.515604e-001 7.041705e-001 -6.193251e+000 136 124 102
1.661647e-001 8.637758e-001 -1.004464e+001 39 44 35
3.469178e-001 7.778445e-001 -6.167312e+000 82 67 48
1.222980e-001 9.783771e-001 -1.014339e+001 228 221 220
4.765472e-001 9.002160e-001 -6.262097e+000 48 38 26
4.809657e-001 9.996236e-001 -6.005607e+000 121 104 77
6.602475e-001 1.119736e+000 -6.359088e+000 30 13 0
5.277135e-001 1.068941e+000 -5.994472e+000 116 95 69
5.094137e-001 2.455137e+000 -1.020256e+001 210 191 159
7.796636e-001 1.388362e+000 -6.271012e+000 138 115 88
7.062904e-001 1.385075e+000 -5.817251e+000 191 158 117
1.508634e+001 -4.769456e+000 -1.601991e+001 77 58 42
1.475853e+001 -3.707480e+000 -1.735352e+001 122 124 111
1.551919e+001 -3.417982e+000 -1.559368e+001 243 223 194
1.521160e+001 -2.685054e+000 -1.566996e+001 117 120 114
1.454054e+001 -4.546981e+000 -1.616105e+001 255 241 188
1.454054e+001 -4.546981e+000 -1.616105e+001 255 241 188
1.654725e+001 -4.682566e+000 -1.546087e+001 251 230 180
1.457793e+001 -4.301014e+000 -1.624389e+001 121 130 125
1.656347e+001 -4.441256e+000 -1.555840e+001 137 120 102
1.523949e+001 -3.208942e+000 -1.572394e+001 125 128 118
1.468254e+001 -2.187152e+000 -1.586113e+001 137 135 125
1.458689e+001 -1.566780e+000 -1.788223e+001 255 245 192
1.442276e+001 -4.651166e+000 -1.643414e+001 252 240 167
1.561960e+001 -4.657431e+000 -1.631218e+001 251 237 205
1.461673e+001 -1.803169e+000 -1.710247e+001 189 145 99
1.632356e+001 -1.628081e+000 -1.515651e+001 111 109 96
1.487569e+001 -4.743330e+000 -1.636206e+001 255 234 161
1.440389e+001 -4.432848e+000 -1.712494e+001 165 127 91
1.447545e+001 -4.265801e+000 -1.864662e+001 255 242 209
1.436558e+001 -2.036569e+000 -1.802220e+001 253 240 207
1.533456e+001 -1.868562e+000 -1.544569e+001 254 237 204
1.558004e+001 -1.861003e+000 -1.538327e+001 247 230 194
1.497653e+001 -5.024245e+000 -1.627116e+001 236 219 193
1.577325e+001 -5.076042e+000 -1.596966e+001 249 233 209
1.625263e+001 -4.768710e+000 -1.574681e+001 135 123 114
1.549072e+001 -4.419856e+000 -1.601549e+001 123 116 99
1.565044e+001 -4.360714e+000 -1.568609e+001 131 119 105
1.457994e+001 -2.910775e+000 -1.598794e+001 254 245 216
1.559168e+001 -2.749782e+000 -1.550325e+001 208 172 147
1.553007e+001 -2.673523e+000 -1.564520e+001 131 120 98
1.635682e+001 -2.709707e+000 -1.537312e+001 124 115 94
1.557797e+001 -2.560272e+000 -1.565996e+001 127 116 96
1.455767e+001 -2.334877e+000 -1.668232e+001 98 73 47
1.424874e+001 -1.464748e+000 -1.779255e+001 251 242 213
1.468490e+001 -1.354857e+000 -1.776615e+001 101 66 39
1.626938e+001 -5.021796e+000 -1.582743e+001 75 74 66
1.586742e+001 -4.986438e+000 -1.647326e+001 245 233 201
1.674274e+001 -4.486485e+000 -1.539520e+001 251 227 170
1.679428e+001 -4.503619e+000 -1.542618e+001 251 227 170
1.557578e+001 -4.245088e+000 -1.601586e+001 128 120 102
1.435066e+001 -4.188528e+000 -1.823734e+001 248 234 195
1.470193e+001 -4.090187e+000 -1.787287e+001 62 45 29
1.545366e+001 -3.891243e+000 -1.585740e+001 112 95 77
1.445160e+001 -3.746840e+000 -2.025868e+001 133 102 81
1.641048e+001 -2.199533e+000 -1.529162e+001 112 104 81
1.434739e+001 -1.614343e+000 -1.780491e+001 139 128 99
1.477242e+001 -1.243949e+000 -1.732230e+001 62 35 18
1.630848e+001 -5.010015e+000 -1.594925e+001 68 60 57
1.452337e+001 -4.554122e+000 -1.641059e+001 152 125 95
1.580213e+001 -4.152278e+000 -1.569507e+001 253 249 232
3.842849e-001 3.191106e-001 -6.367420e+000 29 24 12
1.681193e+001 -3.379094e+000 -1.532103e+001 250 237 211
1.653795e+001 -3.227128e+000 -1.529742e+001 253 228 192
1.464091e+001 -2.960054e+000 -1.694485e+001 103 81 61
1.464091e+001 -2.960054e+000 -1.694485e+001 103 81 61
1.643102e+001 -3.056555e+000 -1.529508e+001 110 92 68
1.558381e+001 -2.508184e+000 -1.555857e+001 250 234 212
1.651519e+001 -1.815948e+000 -1.498781e+001 135 138 129
1.657147e+001 -1.599896e+000 -1.496576e+001 164 169 152
1.564739e+001 -5.011719e+000 -1.641873e+001 230 217 205
1.471543e+001 -4.271133e+000 -1.727288e+001 96 76 46
1.448104e+001 -4.308090e+000 -1.993858e+001 248 236 221
1.495825e+001 -3.826576e+000 -1.603091e+001 251 236 220
1.424944e+001 -3.386497e+000 -1.810330e+001 107 91 68
1.400983e+001 -3.085212e+000 -1.824666e+001 155 134 91
1.633449e+001 -2.766553e+000 -1.543475e+001 160 142 122
1.634131e+001 -2.707222e+000 -1.539129e+001 99 91 68
1.627605e+001 -2.643280e+000 -1.537761e+001 188 183 160
1.639347e+001 -2.189116e+000 -1.530281e+001 97 91 70
1.465382e+001 -1.753179e+000 -1.583040e+001 150 147 135
1.471155e+001 -8.626550e-001 -1.771803e+001 90 55 14
1.654982e+001 -1.091301e+000 -1.482561e+001 238 240 219
1.508426e+001 -4.842016e+000 -1.627443e+001 88 78 57
1.569575e+001 -4.978886e+000 -1.655746e+001 234 220 209
1.574262e+001 -4.942755e+000 -1.654120e+001 59 48 45
1.495485e+001 -4.574406e+000 -1.624185e+001 160 134 99
1.495485e+001 -4.574406e+000 -1.624185e+001 160 134 99
1.480336e+001 -3.649148e+000 -1.607029e+001 247 240 225
1.571636e+001 -3.417769e+000 -1.567861e+001 168 144 117
1.492735e+001 -3.309498e+000 -1.831101e+001 255 232 180
1.470886e+001 -2.116538e+000 -1.684446e+001 148 130 109
1.499321e+001 -4.898426e+000 -1.623277e+001 70 50 35
1.584738e+001 -5.010599e+000 -1.648198e+001 253 243 226
1.502211e+001 -4.445031e+000 -1.815671e+001 127 105 81
1.656933e+001 -3.989479e+000 -1.546136e+001 165 147 126
1.498242e+001 -1.641843e+000 -1.796698e+001 144 114 63
1.502197e+001 -7.207160e-001 -1.779209e+001 141 102 51
2.677763e-001 1.143535e+000 -6.162864e+000 229 201 162
1.431722e+001 -3.307832e+000 -1.816922e+001 75 62 46
1.436794e+001 -1.109041e+000 -1.946424e+001 72 59 40
1.509646e+001 -3.847217e+000 -1.543054e+001 219 199 163
1.589717e+001 -4.827643e+000 -1.577552e+001 73 64 60
1.515527e+001 -3.737527e+000 -1.591140e+001 127 136 133
1.460850e+001 -3.229319e+000 -1.602380e+001 144 147 139
1.471156e+001 -2.736131e+000 -1.599489e+001 133 138 132
1.541116e+001 -3.635115e+000 -1.581696e+001 147 144 127
1.541116e+001 -3.635115e+000 -1.581696e+001 147 144 127
1.839591e+001 -2.682371e+000 -1.542134e+001 166 122 75
1.839591e+001 -2.682371e+000 -1.542134e+001 166 122 75
1.911190e+001 -5.281001e+000 -1.551018e+001 255 251 173
1.831931e+001 -4.557067e+000 -1.549133e+001 249 226 199
1.487000e+001 -2.346831e+000 -1.559885e+001 248 243 213
1.840168e+001 -3.003023e+000 -1.519496e+001 253 243 213
1.508788e+001 -5.063063e+000 -1.634413e+001 252 237 210
1.831330e+001 -4.799453e+000 -1.571100e+001 166 167 190
1.637325e+001 -3.765585e+000 -1.540161e+001 83 66 53
1.555984e+001 -2.967840e+000 -1.580955e+001 253 250 218
1.831303e+001 -3.044271e+000 -1.529945e+001 107 90 70
1.560301e+001 -2.387802e+000 -1.550522e+001 251 239 205
1.662893e+001 -1.592739e+000 -1.487355e+001 141 137 128
2.358996e-001 1.133358e+000 -6.197758e+000 107 78 48
1.624656e+001 -3.634596e+000 -1.550793e+001 146 135 115
1.630595e+001 -3.525447e+000 -1.557251e+001 254 249 217
1.650151e+001 -3.018675e+000 -1.523739e+001 255 252 231
1.547089e+001 -2.538644e+000 -1.559587e+001 139 126 107
1.544043e+001 -2.109103e+000 -1.548995e+001 108 90 77
1.622044e+001 -1.526829e+000 -1.503993e+001 145 134 112
1.641119e+001 -1.035152e+000 -1.483746e+001 101 93 74
2.805054e-002 1.513717e+000 -5.917531e+000 110 99 77
1.503431e+001 -4.872729e+000 -1.629426e+001 254 243 221
1.562383e+001 -4.998317e+000 -1.631226e+001 79 68 65
1.598489e+001 -4.345046e+000 -1.581362e+001 253 246 236
1.671986e+001 -4.400855e+000 -1.549580e+001 249 248 237
1.449581e+001 -3.018413e+000 -1.604443e+001 155 124 100
1.446261e+001 -2.584280e+000 -1.593343e+001 128 108 77
1.453326e+001 -2.589841e+000 -1.583802e+001 138 138 130
1.472845e+001 -2.215192e+000 -1.677561e+001 83 55 30
1.647947e+001 -1.560501e+000 -1.498568e+001 112 96 78
1.654869e+001 -1.118420e+000 -1.484336e+001 224 218 199
1.649266e+001 -6.856118e-001 -1.473407e+001 144 146 131
1.823414e+001 -8.973846e-001 -1.378224e+001 119 91 61
1.642628e+001 -5.679006e-001 -1.467719e+001 167 161 146
1.501704e+001 -4.934999e+000 -1.630644e+001 253 246 223
1.546508e+001 -4.148533e+000 -1.598594e+001 231 224 205
1.843683e+001 -3.248344e+000 -1.573271e+001 67 48 35
1.444155e+001 -2.184645e+000 -1.674590e+001 101 83 65
1.846535e+001 -2.644412e+000 -1.517139e+001 195 187 153
1.656445e+001 -2.274078e+000 -1.510680e+001 218 210 200
1.867560e+001 -2.280074e+000 -1.391113e+001 60 41 24
1.867560e+001 -2.280074e+000 -1.391113e+001 60 41 24
1.877239e+001 -1.858967e+000 -1.385096e+001 232 213 173
1.864383e+001 -1.760228e+000 -1.382140e+001 143 130 95
1.877715e+001 -1.547102e+000 -1.378903e+001 229 200 163
1.862212e+001 -1.421844e+000 -1.378357e+001 199 173 143
1.854870e+001 -1.332518e+000 -1.364515e+001 91 71 38
2.497426e-001 1.162446e+000 -6.214454e+000 215 187 148
1.574785e+001 -4.939762e+000 -1.648440e+001 245 232 212
1.572829e+001 -4.935693e+000 -1.653163e+001 54 47 37
1.863425e+001 -5.143395e+000 -1.511103e+001 237 220 194
1.442206e+001 -3.286957e+000 -1.692539e+001 255 243 215
1.458211e+001 -1.766831e+000 -1.672615e+001 125 115 88
