ply
format ascii 1.0
element face 0
property list uchar int vertex_indices
element vertex 885
property float x
property float y
property float z
property uchar diffuse_red
property uchar diffuse_green
property uchar diffuse_blue
end_header
2.684976e-001 4.749041e-001 -6.240003e+000 103 94 75
-9.846345e-001 9.643369e-002 -1.020017e+001 175 178 176
2.661257e-001 5.529904e-001 -6.227838e+000 62 50 26
2.845455e-001 6.950843e-001 -6.206547e+000 47 40 14
1.318321e+001 1.596647e+000 -3.778022e+001 207 201 176
1.344734e+001 2.564428e+000 -3.767313e+001 205 205 177
-1.220756e+000 9.087372e-001 -8.603514e+000 179 150 107
2.779294e-001 8.126815e-001 -6.176785e+000 63 57 33
1.299032e+001 2.850381e+000 -3.766756e+001 254 250 217
1.261581e+001 2.948210e+000 -3.802853e+001 212 205 185
1.009265e+001 3.060175e+000 -3.881444e+001 253 250 227
1.205803e+001 3.157622e+000 -3.758154e+001 209 209 175
3.150806e-001 8.740320e-001 -6.184530e+000 157 145 120
3.145085e-001 8.743349e-001 -6.187546e+000 157 145 120
1.042745e+001 3.646204e+000 -3.849015e+001 246 252 254
1.261768e+001 3.776740e+000 -3.785365e+001 189 201 196
1.189199e+001 4.514372e+000 -3.825537e+001 226 199 180
3.487055e-001 9.705557e-001 -5.933278e+000 196 183 150
3.278051e-002 1.034598e+000 -6.257305e+000 82 66 39
3.487007e-002 1.043102e+000 -6.247469e+000 237 218 169
8.965468e-002 1.051653e+000 -6.223388e+000 212 191 149
3.416644e-001 1.018022e+000 -5.927473e+000 225 210 171
1.965851e+000 2.349394e+000 -1.232508e+001 193 130 58
2.103363e+000 2.367171e+000 -1.229948e+001 200 159 119
2.322087e+000 2.342502e+000 -1.214766e+001 97 43 2
2.399376e+000 2.336128e+000 -1.207975e+001 251 212 153
2.287167e+000 2.395650e+000 -1.209767e+001 254 215 142
2.058575e+000 2.466568e+000 -1.208857e+001 208 155 104
2.277758e+000 2.495903e+000 -1.217881e+001 47 13 0
2.313858e+000 2.484621e+000 -1.212415e+001 103 57 8
2.468584e+000 2.519629e+000 -1.208308e+001 253 221 152
-2.768359e+000 2.646296e+000 -1.275059e+001 114 101 87
-2.543207e+000 2.660792e+000 -1.263071e+001 97 82 54
-2.367333e+000 2.736722e+000 -1.277775e+001 77 70 52
4.742906e-001 1.222944e+000 -5.979713e+000 215 184 148
-1.804662e+000 2.478363e+000 -1.093065e+001 21 10 2
-1.463759e+000 2.115729e+000 -9.387927e+000 209 194 185
-1.463759e+000 2.115729e+000 -9.387927e+000 209 194 185
4.775572e-001 1.339745e+000 -5.708001e+000 229 200 156
4.571794e-001 1.422642e+000 -5.604767e+000 180 168 144
1.170794e-001 1.422953e+000 -5.612959e+000 186 175 149
1.543825e-001 1.419685e+000 -5.601132e+000 94 84 58
4.617934e-002 1.440168e+000 -5.641937e+000 147 137 113
4.574797e-001 1.434970e+000 -5.601587e+000 158 148 122
3.293088e-001 1.426119e+000 -5.574275e+000 163 157 134
2.693840e-001 -1.833267e-002 -6.356841e+000 61 55 31
3.107437e-001 -2.025275e-002 -6.383889e+000 141 129 104
3.106531e-001 5.676142e-002 -6.369032e+000 142 131 103
2.562047e-001 1.548289e-001 -6.307686e+000 110 99 81
2.428861e-001 1.713067e-001 -6.287738e+000 112 99 80
2.673713e-001 3.620164e-001 -6.270196e+000 66 58 37
3.058642e-001 4.379989e-001 -6.279458e+000 81 65 32
3.536849e-001 5.578328e-001 -6.238012e+000 156 142 113
3.228554e-001 7.018770e-001 -6.216257e+000 164 150 123
2.894130e-001 7.123148e-001 -6.211749e+000 95 88 64
3.231780e-001 7.380078e-001 -6.209391e+000 164 150 123
1.922012e-001 7.684387e-001 -6.114879e+000 100 88 73
8.396741e+000 2.946280e+000 -3.914351e+001 254 250 222
2.002070e+000 1.698523e+000 -1.632573e+001 59 51 40
1.144099e+001 3.585965e+000 -3.809918e+001 249 253 255
1.144099e+001 3.585965e+000 -3.809918e+001 249 253 255
1.688112e+000 1.729455e+000 -1.636330e+001 46 41 35
1.080435e+001 4.040381e+000 -3.849841e+001 252 255 253
1.162744e+001 4.892258e+000 -3.808757e+001 255 253 231
1.021491e+001 5.442789e+000 -3.890488e+001 193 185 152
1.000183e+001 5.571063e+000 -3.872098e+001 218 212 150
1.959055e-001 9.965603e-001 -6.069053e+000 128 119 107
2.617177e-002 1.047745e+000 -6.251553e+000 202 181 151
9.292458e-002 1.055784e+000 -6.224644e+000 97 73 35
4.478201e-001 1.048485e+000 -5.980785e+000 236 217 194
2.340300e+000 2.269838e+000 -1.212783e+001 254 216 157
3.519801e-001 1.076497e+000 -5.946077e+000 250 221 179
2.022392e+000 2.350513e+000 -1.223261e+001 254 223 164
3.050337e+000 2.376846e+000 -1.187906e+001 92 49 9
2.352912e+000 2.420314e+000 -1.212200e+001 252 212 140
2.490720e+000 2.499107e+000 -1.210938e+001 250 210 153
2.013742e+000 2.657213e+000 -1.218758e+001 255 209 139
1.227559e-001 1.428689e+000 -5.609467e+000 93 84 67
2.949053e-001 1.422487e+000 -5.580435e+000 173 165 144
2.909932e-001 1.430942e+000 -5.575608e+000 101 91 66
4.674153e-001 3.330108e-001 -6.279546e+000 157 176 206
2.981916e-001 1.275684e+000 -5.690524e+000 203 164 117
4.330214e-001 4.006663e-001 -6.259341e+000 163 181 205
4.330214e-001 4.006663e-001 -6.259341e+000 163 181 205
1.486013e+001 7.629586e-001 -3.693061e+001 232 111 108
3.949401e-001 -1.510526e-003 -6.383386e+000 17 14 15
2.703849e-001 -1.672008e-001 -6.385357e+000 9 7 12
2.883366e-001 7.140842e-001 -6.210517e+000 91 76 55
3.755736e-001 8.968534e-002 -6.341658e+000 7 4 4
1.515766e+001 1.253206e+000 -3.675963e+001 254 255 252
1.322465e+001 4.756710e+000 -3.612456e+001 250 253 248
6.402630e-002 2.454311e+000 -1.025069e+001 31 24 9
1.474023e+001 9.962600e-001 -3.614499e+001 243 113 120
1.359434e+001 3.168370e+000 -3.686823e+001 253 252 255
1.367040e+001 3.469642e+000 -3.712829e+001 187 183 164
1.270108e+001 3.646155e+000 -3.803746e+001 241 244 243
1.392963e+001 3.768835e+000 -3.678029e+001 195 214 225
1.222360e+001 3.854137e+000 -3.734356e+001 243 253 253
1.517723e-001 1.273398e+000 -9.839181e+000 57 40 13
1.220605e+000 2.237615e+000 -1.627031e+001 53 44 14
1.220605e+000 2.237615e+000 -1.627031e+001 53 44 14
1.727803e-003 2.423575e+000 -1.012457e+001 23 19 13
1.819120e-001 1.333215e+000 -5.698912e+000 216 182 134
1.193085e-001 1.416828e+000 -5.612102e+000 200 176 149
2.254491e+001 -2.848419e+000 -3.791356e+001 253 244 211
2.271993e+001 -2.705246e+000 -3.891422e+001 192 154 115
2.271993e+001 -2.705246e+000 -3.891422e+001 192 154 115
3.139933e-001 5.754449e-001 -6.248420e+000 156 142 113
3.631474e+000 6.961490e-001 -1.406502e+001 253 113 118
3.631474e+000 6.961490e-001 -1.406502e+001 253 113 118
1.370295e+001 2.630745e+000 -3.737531e+001 195 179 166
8.539091e-002 1.105997e+000 -9.894870e+000 74 63 21
1.781274e+000 1.642590e+000 -1.605533e+001 73 61 52
4.023929e+000 1.740520e+000 -1.633000e+001 238 242 243
1.362055e+001 3.472194e+000 -3.638065e+001 234 239 234
1.468388e+001 3.589521e+000 -3.747156e+001 252 252 229
1.346764e+001 3.564163e+000 -3.711122e+001 249 250 252
1.969312e-001 1.320966e+000 -9.858994e+000 53 47 36
1.188262e+000 2.099932e+000 -1.638348e+001 126 110 69
1.273363e+000 2.183393e+000 -1.630933e+001 204 192 172
8.600537e+000 4.367748e+000 -3.129956e+001 140 106 53
3.145769e-001 1.080207e+000 -5.944377e+000 236 196 144
4.894765e-001 2.487608e+000 -1.033389e+001 163 129 86
3.074255e-001 1.214803e+000 -5.703600e+000 223 175 133
7.922709e-002 1.343950e+000 -5.743014e+000 203 169 123
1.251512e-001 1.340124e+000 -5.720176e+000 201 169 124
-1.172732e-001 1.473801e+000 -5.792277e+000 120 106 79
3.508307e-001 -1.800376e-001 -6.413023e+000 116 106 85
2.285486e+001 -2.447254e+000 -3.973428e+001 97 77 68
-2.478171e-002 1.063571e+000 -1.021596e+001 50 42 19
1.443266e+001 3.492551e+000 -3.647518e+001 182 175 156
1.443266e+001 3.492551e+000 -3.647518e+001 182 175 156
1.442895e+001 3.735476e+000 -3.641410e+001 196 188 165
1.442895e+001 3.735476e+000 -3.641410e+001 196 188 165
1.091990e+000 2.104552e+000 -1.636479e+001 203 190 178
1.089251e+000 2.166991e+000 -1.632916e+001 131 115 75
1.089251e+000 2.166991e+000 -1.632916e+001 131 115 75
2.940158e+000 1.493629e+000 -8.646454e+000 49 29 16
3.787482e-001 1.055180e+000 -5.934482e+000 129 96 63
3.155598e-001 1.054574e+000 -5.924714e+000 129 92 50
-5.512568e-002 2.323077e+000 -1.016566e+001 31 21 19
2.600931e-002 2.405587e+000 -1.016539e+001 186 173 152
2.600931e-002 2.405587e+000 -1.016539e+001 186 173 152
3.693516e-001 1.418203e+000 -5.582193e+000 131 115 90
2.047185e-001 1.431456e+000 -5.587579e+000 95 82 63
9.189789e-002 1.438786e+000 -5.619039e+000 101 89 63
3.818642e-001 -1.038147e-002 -6.364330e+000 115 108 79
2.288283e+001 -1.804661e+000 -3.963665e+001 84 65 56
1.631701e-001 6.849586e-001 -6.105776e+000 66 51 30
1.450381e+001 1.145047e+000 -3.813416e+001 198 197 193
-6.802481e-003 2.317300e+000 -1.017618e+001 184 167 149
-3.459428e-003 2.359488e+000 -1.016099e+001 157 150 147
-3.459428e-003 2.359488e+000 -1.016099e+001 157 150 147
2.857122e-001 1.415569e+000 -5.582171e+000 121 109 86
2.787597e-001 1.419052e+000 -5.580791e+000 157 144 125
1.544134e-001 1.420482e+000 -5.602225e+000 103 88 64
2.851590e-001 1.429522e+000 -5.577574e+000 97 84 66
3.740836e-001 -1.511953e-001 -6.402235e+000 16 9 4
3.661357e-001 1.836722e-002 -6.364981e+000 115 104 81
1.625581e-001 2.078759e-001 -6.212483e+000 115 102 85
4.228087e-001 4.777803e-001 -6.231593e+000 124 117 96
2.311932e+001 -3.042334e+000 -4.038065e+001 70 62 56
2.281455e+001 -2.052450e+000 -3.955008e+001 108 91 66
2.317975e+001 -1.936740e+000 -4.026575e+001 223 207 197
-2.306796e-003 1.048706e+000 -1.021494e+001 114 111 94
-2.306796e-003 1.048706e+000 -1.021494e+001 114 111 94
1.364559e+001 2.755301e+000 -3.690492e+001 240 234 207
1.826358e+000 1.702117e+000 -1.616321e+001 244 236 224
1.448980e+001 3.358709e+000 -3.681624e+001 253 242 215
1.172703e+001 3.772573e+000 -3.852776e+001 248 252 251
1.316065e+001 3.915463e+000 -3.729631e+001 204 212 217
1.808934e-001 1.366435e+000 -9.853774e+000 169 143 80
3.321229e-001 9.919612e-001 -5.933351e+000 230 206 162
1.782224e-001 1.025669e+000 -6.050757e+000 123 113 101
3.702491e-001 1.025295e+000 -5.915998e+000 181 163 141
2.595407e+000 2.119704e+000 -1.233794e+001 89 51 18
2.863194e+000 2.360541e+000 -1.192276e+001 188 123 55
2.987534e-001 1.219896e+000 -5.905933e+000 52 11 0
-3.464017e-002 2.365963e+000 -1.016059e+001 142 133 126
2.745495e-001 9.632739e-001 -4.732287e+000 180 166 140
-1.369940e-002 1.449757e+000 -5.795399e+000 197 164 119
-8.190695e-002 1.448258e+000 -5.753372e+000 234 213 182
3.433910e-001 1.417822e+000 -5.579534e+000 126 112 86
-2.396640e-002 1.446463e+000 -5.692517e+000 116 98 74
-2.414474e-002 1.446089e+000 -5.692209e+000 116 98 74
5.371812e-002 1.433922e+000 -5.638880e+000 156 143 126
2.640439e-001 5.081503e-001 -6.249473e+000 120 111 91
1.440805e+001 1.906306e+000 -3.429693e+001 196 192 186
-6.174323e-002 1.040960e+000 -1.024632e+001 58 48 39
1.430872e+001 3.317720e+000 -3.624827e+001 240 229 202
2.379649e-001 8.868920e-001 -6.177889e+000 135 131 113
1.044867e+001 3.701809e+000 -3.913309e+001 249 250 250
1.396353e+001 3.554364e+000 -3.671386e+001 204 211 205
1.170110e+001 3.863303e+000 -3.854192e+001 200 205 208
1.355635e+001 3.895877e+000 -3.723188e+001 196 207 213
3.002777e+000 1.407299e+000 -1.042535e+001 51 34 9
2.872454e+000 1.275203e+000 -8.550844e+000 151 120 77
1.316215e+000 2.242385e+000 -1.623169e+001 136 118 94
6.217289e-002 1.084879e+000 -6.251937e+000 70 46 18
2.692379e+000 2.302997e+000 -1.190578e+001 245 190 134
3.645220e+000 2.213200e+000 -9.565693e+000 104 88 54
2.885395e-001 1.228169e+000 -5.908137e+000 255 228 175
1.767789e-001 1.229260e+000 -5.722860e+000 255 238 197
1.692659e-001 1.229681e+000 -5.724937e+000 255 228 193
-2.409288e-001 1.631347e+000 -6.444334e+000 114 98 73
3.205971e-001 1.416265e+000 -5.577719e+000 112 100 82
6.795676e-003 1.432941e+000 -5.669233e+000 117 97 72
3.278896e-001 1.419340e+000 -5.580810e+000 105 93 69
1.808674e-001 1.419787e+000 -5.595186e+000 103 90 69
1.810145e-001 1.419734e+000 -5.595211e+000 103 90 69
-2.747442e-001 1.335738e+000 -5.303551e+000 219 199 163
1.322861e-001 2.032114e-001 -6.224422e+000 68 50 28
2.294119e+001 -3.040215e+000 -3.811224e+001 176 160 133
2.263903e+001 -2.025511e+000 -3.816096e+001 251 233 182
3.158674e-001 5.719077e-001 -6.249003e+000 179 165 137
3.507439e-001 5.816061e-001 -6.232679e+000 158 143 117
3.539247e-001 6.074310e-001 -6.226666e+000 19 11 0
1.351393e+001 2.546279e+000 -3.755790e+001 208 207 187
1.302303e+001 2.590246e+000 -3.791451e+001 212 208 196
1.163163e+001 2.831508e+000 -3.896446e+001 204 190 167
1.247593e+001 2.896364e+000 -3.805726e+001 218 214 190
1.247593e+001 2.896364e+000 -3.805726e+001 218 214 190
-1.627622e-001 1.159763e+000 -9.436795e+000 192 185 161
1.343284e+001 3.469181e+000 -3.707721e+001 255 254 255
2.998522e-001 9.154382e-001 -6.175160e+000 91 81 69
3.092246e-001 9.180575e-001 -6.178446e+000 152 141 115
1.830086e-001 1.324133e+000 -9.899839e+000 54 45 41
1.226981e+001 4.460000e+000 -3.823991e+001 255 239 219
1.050129e+001 4.418666e+000 -3.102805e+001 248 230 180
5.142313e-003 1.435346e+000 -5.669040e+000 177 159 135
6.157674e-002 1.427489e+000 -5.635654e+000 191 176 153
2.233050e-001 1.419910e+000 -5.586074e+000 204 190 163
1.134224e-001 1.423793e+000 -5.612791e+000 128 111 83
3.715969e-001 -7.281078e-002 -6.378312e+000 7 6 1
1.450948e+001 -4.059288e+000 -1.852896e+001 132 128 125
-9.146352e-002 1.464880e+000 -5.761313e+000 117 110 84
1.392067e+001 -4.223464e+000 -1.842947e+001 249 238 158
1.428808e+001 -3.821411e+000 -1.966308e+001 91 64 44
1.446905e+001 -3.521419e+000 -1.843264e+001 80 70 57
1.467076e+001 -3.572328e+000 -1.861785e+001 80 70 57
1.467076e+001 -3.572328e+000 -1.861785e+001 80 70 57
1.422198e+001 -3.164855e+000 -1.812113e+001 229 221 191
1.421651e+001 -3.161188e+000 -1.811532e+001 229 221 191
1.432044e+001 -3.271499e+000 -1.957129e+001 93 70 55
9.267379e-002 1.292533e+000 -6.033312e+000 179 138 84
-3.929438e-002 1.365899e+000 -5.848161e+000 192 164 117
-3.929438e-002 1.365899e+000 -5.848161e+000 192 164 117
4.620328e-001 1.197601e-001 -6.316156e+000 14 12 8
1.421465e+001 -4.449656e+000 -1.940573e+001 255 241 215
1.425215e+001 -4.428187e+000 -1.968705e+001 135 130 129
1.419134e+001 -3.997603e+000 -1.861639e+001 254 239 158
3.018196e-001 1.045139e+000 -5.936524e+000 251 225 180
2.295270e+000 2.283285e+000 -1.212778e+001 237 197 135
2.286410e+000 2.402489e+000 -1.213258e+001 254 208 144
2.227358e+000 2.453108e+000 -1.214945e+001 69 38 18
2.227358e+000 2.453108e+000 -1.214945e+001 69 38 18
2.227358e+000 2.453108e+000 -1.214945e+001 69 38 18
2.217034e+000 2.681498e+000 -1.184153e+001 235 216 184
-7.054701e-002 1.456550e+000 -5.735895e+000 140 128 106
4.535058e-001 -1.135838e-001 -6.356990e+000 106 96 71
1.435843e+001 -2.762763e+000 -1.802773e+001 125 116 96
2.076805e+000 2.265990e+000 -1.232146e+001 248 189 121
-3.366413e-002 1.379085e+000 -5.836393e+000 248 216 165
-1.464610e-001 1.474054e+000 -5.843345e+000 97 85 69
4.025170e-001 -7.322388e-002 -6.374368e+000 116 104 74
2.249703e+000 2.298161e+000 -1.241814e+001 33 8 7
2.054624e+000 2.346602e+000 -1.227517e+001 224 179 115
2.232273e+000 2.391664e+000 -1.220902e+001 229 192 127
2.235173e+000 2.438988e+000 -1.216819e+001 59 34 12
2.034290e+000 2.510867e+000 -1.215688e+001 25 9 5
2.096650e+000 2.585862e+000 -1.210277e+001 195 144 68
2.129876e+000 2.573027e+000 -1.202263e+001 204 164 102
2.163929e+000 2.633616e+000 -1.211215e+001 84 39 18
-7.652224e-002 1.448097e+000 -5.894600e+000 190 161 117
-7.615934e-002 1.448166e+000 -5.894986e+000 190 161 117
1.278408e-001 1.424146e+000 -5.609464e+000 108 100 79
-7.737470e-002 1.447295e+000 -5.745356e+000 216 200 165
1.433798e+001 -4.362810e+000 -1.829433e+001 167 158 151
1.433703e+001 -4.362967e+000 -1.829356e+001 167 158 151
1.443028e+001 -4.481860e+000 -1.941922e+001 101 94 79
1.457420e+001 -4.529009e+000 -1.956097e+001 101 94 79
1.455157e+001 -4.388722e+000 -2.012450e+001 246 226 202
1.444016e+001 -4.142188e+000 -1.833457e+001 133 118 95
1.448389e+001 -3.875978e+000 -2.000860e+001 68 46 44
1.434153e+001 -3.559769e+000 -1.813931e+001 146 130 107
1.427730e+001 -3.539254e+000 -1.808070e+001 146 130 107
1.433931e+001 -3.280429e+000 -1.813749e+001 243 229 202
1.411188e+001 -3.236745e+000 -1.821543e+001 133 115 93
1.411188e+001 -3.236745e+000 -1.821543e+001 133 115 93
2.010366e+000 2.299947e+000 -1.224565e+001 81 34 2
2.173625e+000 2.372215e+000 -1.229406e+001 156 92 30
2.173625e+000 2.372215e+000 -1.229406e+001 156 92 30
2.128273e+000 2.396305e+000 -1.226993e+001 238 205 147
2.411125e+000 2.423453e+000 -1.217879e+001 195 133 60
2.411125e+000 2.423453e+000 -1.217879e+001 195 133 60
1.931994e+000 2.426611e+000 -1.207802e+001 234 198 134
2.142120e+000 2.489613e+000 -1.211290e+001 98 52 8
8.227159e-002 1.187185e+000 -6.085576e+000 191 158 112
2.152964e+000 2.591252e+000 -1.199212e+001 101 64 38
2.281568e+000 2.625863e+000 -1.210129e+001 227 180 113
2.128622e+000 2.655217e+000 -1.209709e+001 191 145 87
2.115069e+000 2.683839e+000 -1.204828e+001 89 44 21
-3.660091e-002 1.455584e+000 -5.821671e+000 197 166 119
-1.256945e-001 1.464075e+000 -5.806216e+000 106 90 65
-3.626940e-002 1.443087e+000 -5.704686e+000 134 119 88
2.608014e-001 -5.969064e-002 -6.538692e+000 75 73 61
4.147420e-001 1.828858e-001 -6.300101e+000 136 129 103
1.468719e+001 -4.413982e+000 -1.965676e+001 126 113 101
1.447284e+001 -3.971968e+000 -2.008130e+001 236 222 199
1.458892e+001 -3.814923e+000 -1.993556e+001 61 39 34
1.412508e+001 -2.224081e+000 -1.794721e+001 248 239 208
1.444484e+001 -1.719416e+000 -1.810984e+001 251 251 225
1.452059e+001 -1.619177e+000 -1.939752e+001 55 41 35
1.416183e+001 -1.065790e+000 -1.781000e+001 148 127 94
2.235947e+000 2.271578e+000 -1.229659e+001 184 147 95
2.229983e+000 2.485079e+000 -1.217774e+001 36 10 7
2.345029e+000 2.496220e+000 -1.208133e+001 254 223 165
2.240135e+000 2.545533e+000 -1.211429e+001 104 55 12
2.240135e+000 2.545533e+000 -1.211429e+001 104 55 12
2.358324e+000 2.622221e+000 -1.202385e+001 185 137 69
1.654903e+000 2.531097e+000 -1.061384e+001 214 199 168
1.654903e+000 2.531097e+000 -1.061384e+001 214 199 168
-3.487102e-002 1.359331e+000 -5.841356e+000 243 210 165
-1.447080e-002 1.358021e+000 -5.815421e+000 171 137 93
1.408363e+001 -4.251982e+000 -1.845563e+001 149 121 81
2.302646e+000 2.256628e+000 -1.234491e+001 229 192 140
2.296769e+000 2.381322e+000 -1.219356e+001 227 184 111
2.036173e+000 2.385782e+000 -1.220679e+001 87 51 7
1.990214e+000 2.415852e+000 -1.215710e+001 117 67 11
2.120157e+000 2.427140e+000 -1.205563e+001 221 168 110
2.173324e+000 2.569896e+000 -1.203916e+001 223 189 144
2.173324e+000 2.569896e+000 -1.203916e+001 223 189 144
1.683321e+000 2.609282e+000 -1.216181e+001 246 232 202
2.246464e+000 2.703708e+000 -1.178211e+001 154 131 101
-8.315549e-002 1.456600e+000 -5.751860e+000 174 162 138
3.931296e-001 2.916845e-001 -6.286437e+000 91 82 71
1.447260e+001 -2.225175e+000 -1.980624e+001 123 98 74
4.649872e-001 7.343009e-001 -6.156981e+000 143 129 100
2.862496e+000 1.153043e+000 -1.030168e+001 72 68 52
2.030659e+000 2.284527e+000 -1.223571e+001 240 196 149
2.234739e+000 2.324560e+000 -1.227086e+001 212 166 108
2.130641e+000 2.352926e+000 -1.229810e+001 222 190 152
2.213253e+000 2.415472e+000 -1.229756e+001 247 199 137
2.230389e+000 2.577538e+000 -1.214919e+001 60 14 0
1.986465e+000 2.594583e+000 -1.209152e+001 248 208 137
2.247189e+000 2.610974e+000 -1.209731e+001 58 12 0
2.186495e+000 2.622342e+000 -1.203358e+001 248 199 146
1.670538e+000 2.653376e+000 -1.214864e+001 245 230 197
2.163585e+000 2.729126e+000 -1.186501e+001 237 193 133
3.156282e-001 1.218190e+000 -5.699626e+000 248 230 182
-5.688531e-002 1.442330e+000 -5.724643e+000 190 169 138
-1.158776e-001 1.455501e+000 -5.782983e+000 146 130 104
1.446887e+001 -4.373372e+000 -2.016376e+001 63 52 40
3.118261e-001 5.013179e-001 -6.267549e+000 152 138 106
3.601961e-001 5.584186e-001 -6.233839e+000 94 83 53
2.220320e+000 2.513545e+000 -1.209101e+001 254 229 168
2.038477e+000 2.540251e+000 -1.215850e+001 233 195 153
2.251615e+000 2.597605e+000 -1.211485e+001 251 203 149
2.351983e+000 2.613188e+000 -1.206440e+001 255 213 138
1.419959e+000 2.708407e+000 -1.323845e+001 110 83 54
1.448560e+000 2.670186e+000 -1.325492e+001 32 23 1
1.275497e+000 2.740567e+000 -1.316090e+001 74 52 6
2.282849e+000 2.541448e+000 -1.215158e+001 250 220 150
6.257066e-001 1.244978e+000 -6.225065e+000 115 103 84
3.817223e-001 3.058511e-001 -5.832292e+000 159 179 197
-1.202159e+000 9.492213e-001 -8.647066e+000 188 153 87
6.374673e-001 1.248323e+000 -6.228104e+000 247 218 174
-3.405892e-001 1.568555e+000 -6.295566e+000 109 106 101
3.610228e-001 1.300200e-001 -6.570401e+000 139 131 108
3.171506e-001 7.472320e-001 -6.211447e+000 151 138 112
-1.226448e+000 9.304000e-001 -8.636570e+000 152 125 75
3.470499e-001 1.005534e+000 -5.937479e+000 231 215 177
3.210469e-001 1.416655e+000 -5.578553e+000 109 94 75
-7.666318e-002 1.348293e+000 -5.349729e+000 68 60 49
1.869356e-001 4.193094e-001 -6.180559e+000 115 98 81
2.408873e-001 4.203695e-001 -6.226310e+000 117 105 81
2.660884e-001 5.853687e-001 -6.216134e+000 102 90 66
2.755484e-001 7.497499e-001 -6.189790e+000 94 86 66
-1.465144e+000 1.710824e+000 -9.127772e+000 77 56 17
7.016345e-001 1.517746e+000 -6.190271e+000 215 193 151
3.112779e-001 1.432924e+000 -5.574001e+000 159 147 121
2.248389e+001 -2.834559e+000 -3.782095e+001 253 244 211
2.257333e+001 -1.931187e+000 -3.818103e+001 254 237 165
2.253971e+001 -1.929731e+000 -3.814486e+001 254 237 165
3.353981e-001 1.037220e+000 -5.929349e+000 56 35 22
2.283944e+001 -1.611113e+000 -3.810121e+001 255 241 214
1.245051e+000 2.118742e+000 -1.635615e+001 198 186 174
3.003941e+000 2.319067e+000 -1.195517e+001 247 199 137
3.390814e-001 1.557956e-001 -6.332439e+000 131 120 97
2.301260e+001 -3.137098e+000 -3.942592e+001 120 106 97
2.864479e+000 2.360784e+000 -1.192775e+001 188 123 55
2.801851e+000 2.368008e+000 -1.191005e+001 193 125 62
2.801851e+000 2.368008e+000 -1.191005e+001 193 125 62
3.384057e-001 1.423946e+000 -5.652941e+000 148 119 73
3.381288e-001 6.558450e-001 -6.221295e+000 95 79 54
1.486465e+001 2.472705e+000 -3.668911e+001 253 251 235
8.044788e-002 1.039481e+000 -6.223630e+000 198 175 150
3.523321e-001 1.003819e+000 -5.934785e+000 85 65 39
2.996955e+000 2.214765e+000 -1.212357e+001 253 215 169
9.365073e-002 1.425282e+000 -5.619309e+000 100 82 58
3.583687e-001 8.769925e-002 -6.340495e+000 133 120 95
3.354000e-001 7.730194e-001 -6.195946e+000 147 131 106
3.102296e+000 2.235781e+000 -1.191346e+001 255 192 127
2.988835e+000 2.268554e+000 -1.192499e+001 253 206 147
3.075579e+000 2.333449e+000 -1.185343e+001 164 104 42
4.743718e-001 1.174375e+000 -5.990732e+000 196 161 128
2.565019e-001 5.155408e-001 -6.465226e+000 72 59 40
1.099566e-001 1.322231e+000 -5.774517e+000 247 225 172
2.456562e-001 5.170472e-001 -6.454146e+000 67 54 35
4.461087e-001 -1.267155e-001 -6.363932e+000 111 99 71
3.707964e-001 -7.197915e-002 -6.377192e+000 7 6 1
3.005306e+000 2.485549e+000 -1.196896e+001 156 110 44
4.512562e-001 -7.298390e-002 -6.363580e+000 117 99 63
4.605130e-001 2.036163e-001 -6.282062e+000 130 122 86
8.298957e-002 1.087165e+000 -6.239450e+000 50 24 6
2.674808e+000 2.463164e+000 -1.201314e+001 217 165 98
2.675558e+000 2.608415e+000 -1.189276e+001 247 207 138
3.829581e-002 1.435828e+000 -5.649208e+000 82 68 55
2.565237e-001 1.753053e-001 -6.489079e+000 98 82 61
2.641816e+000 2.382508e+000 -1.205538e+001 2 4 1
2.861678e+000 2.568982e+000 -1.194581e+001 44 23 17
2.841472e+000 2.637556e+000 -1.196334e+001 242 202 138
3.000855e+000 2.644699e+000 -1.192140e+001 41 16 8
-1.250712e-001 1.496458e+000 -6.068979e+000 221 196 155
4.069233e+000 1.781026e+000 -1.281659e+001 110 89 72
4.069233e+000 1.781026e+000 -1.281659e+001 110 89 72
1.284834e-001 1.081797e+000 -6.196182e+000 53 43 23
2.877701e+000 2.613368e+000 -1.184618e+001 230 177 106
2.658272e+000 2.685262e+000 -1.182242e+001 213 159 87
2.595867e-001 -1.301240e-001 -6.550425e+000 90 83 56
1.999150e-001 3.084191e-001 -6.283936e+000 120 108 81
2.553990e-001 4.605776e-001 -6.392423e+000 91 79 60
2.338052e-001 8.793956e-001 -6.183080e+000 24 24 24
2.991538e-001 1.014330e+000 -5.966423e+000 167 148 115
9.683506e-002 1.081160e+000 -6.213277e+000 226 204 156
2.589593e+000 2.196583e+000 -1.207019e+001 168 103 43
8.770498e-002 1.113062e+000 -6.092319e+000 228 195 149
2.743138e+000 2.374041e+000 -1.208755e+001 62 27 14
2.743138e+000 2.374041e+000 -1.208755e+001 62 27 14
2.993784e+000 2.369587e+000 -1.202311e+001 213 152 93
2.591466e+000 2.635287e+000 -1.190677e+001 223 163 103
2.995285e+000 2.663450e+000 -1.191851e+001 22 6 3
2.995285e+000 2.663450e+000 -1.191851e+001 22 6 3
2.621709e+000 2.700508e+000 -1.198569e+001 57 24 5
5.188112e+000 1.984851e+000 -8.191895e+000 108 99 90
3.113481e-001 1.221736e+000 -5.721734e+000 180 138 95
3.843063e-001 -1.443409e-001 -6.374535e+000 27 22 12
4.516537e-001 -1.629478e-001 -6.369949e+000 89 91 75
2.639952e-001 -1.046916e-001 -6.530144e+000 87 80 68
2.626948e-001 -1.047490e-001 -6.529366e+000 87 80 68
4.936983e+000 8.302242e-001 -8.592634e+000 141 119 86
9.681687e-002 1.068775e+000 -6.216414e+000 209 186 152
1.045230e-001 1.083813e+000 -6.204479e+000 67 53 17
3.165360e-001 1.054638e+000 -5.922073e+000 140 105 67
7.996876e-002 1.112922e+000 -6.123863e+000 63 39 16
3.057017e+000 2.239757e+000 -1.209248e+001 214 158 91
3.034279e+000 2.416839e+000 -1.200960e+001 41 8 4
2.799284e+000 2.483550e+000 -1.196430e+001 22 6 4
2.593942e+000 2.492676e+000 -1.202002e+001 30 7 9
2.851567e+000 2.615693e+000 -1.202179e+001 202 155 79
2.555571e+000 2.588681e+000 -1.196573e+001 236 187 123
2.865188e+000 2.595498e+000 -1.191149e+001 33 6 5
2.618112e+000 2.601502e+000 -1.193304e+001 59 26 7
2.618112e+000 2.601502e+000 -1.193304e+001 59 26 7
2.726445e+000 2.701461e+000 -1.178822e+001 175 127 73
5.198156e+000 1.971743e+000 -8.161010e+000 15 11 13
2.817412e+000 2.520289e+000 -1.051630e+001 126 109 83
2.817412e+000 2.520289e+000 -1.051630e+001 126 109 83
2.475052e+000 2.535085e+000 -1.056415e+001 172 156 131
2.047656e-001 1.431770e+000 -6.415476e+000 109 86 60
-1.635470e-003 1.351264e+000 -5.805484e+000 251 219 170
1.774201e-001 1.418452e+000 -5.594874e+000 98 88 63
-1.762348e-001 1.486041e+000 -5.907997e+000 107 95 68
-8.865287e-002 1.449045e+000 -5.761949e+000 204 188 152
-9.023000e-002 1.454802e+000 -5.760406e+000 121 111 83
2.532631e-001 -1.276203e-001 -6.531497e+000 75 69 50
4.635081e-001 1.197438e-001 -6.300532e+000 25 24 23
3.471532e-001 4.284204e-001 -6.259932e+000 133 122 92
2.999168e+000 2.316216e+000 -1.213345e+001 227 183 120
3.016144e+000 2.338345e+000 -1.206462e+001 76 31 6
2.602044e+000 2.446382e+000 -1.198009e+001 52 22 9
2.632146e+000 2.458552e+000 -1.190127e+001 255 211 150
2.935969e+000 2.491943e+000 -1.186391e+001 242 195 128
2.821249e+000 2.552383e+000 -1.197812e+001 19 5 0
2.508672e+000 2.591915e+000 -1.199397e+001 248 192 125
2.768303e+000 2.608112e+000 -1.193834e+001 89 41 19
2.548942e+000 2.701864e+000 -1.192672e+001 229 178 111
2.385700e+000 2.517202e+000 -1.048988e+001 219 203 177
2.407822e+000 2.537197e+000 -1.045846e+001 231 211 187
1.964942e-001 1.284912e+000 -5.920172e+000 252 218 170
1.054369e-001 1.444973e+000 -6.220780e+000 221 195 146
1.057935e-001 1.459836e+000 -6.220717e+000 205 181 135
-2.059485e-002 1.354131e+000 -5.819438e+000 241 209 160
3.277267e-001 1.426219e+000 -5.578040e+000 171 161 134
2.175459e-001 1.418975e+000 -5.586672e+000 186 172 143
-1.932047e-001 1.511128e+000 -6.003243e+000 80 68 51
3.041040e-001 1.432569e+000 -5.578419e+000 106 99 73
2.638863e-001 1.441378e-001 -6.476757e+000 85 82 66
2.475360e-001 7.194823e-001 -6.386022e+000 95 86 69
4.071924e+000 1.850507e+000 -1.265880e+001 84 66 48
4.022625e+000 1.940288e+000 -1.282789e+001 64 49 40
3.005024e+000 2.219971e+000 -1.228006e+001 77 38 1
3.005024e+000 2.219971e+000 -1.228006e+001 77 38 1
3.003710e+000 2.370765e+000 -1.189179e+001 191 143 97
2.760481e+000 2.389567e+000 -1.197418e+001 193 131 57
2.960470e+000 2.460969e+000 -1.193738e+001 251 203 145
2.892652e+000 2.459873e+000 -1.182599e+001 164 112 51
2.892652e+000 2.459873e+000 -1.182599e+001 164 112 51
2.527756e+000 2.607553e+000 -1.197901e+001 178 119 51
5.192661e+000 1.932825e+000 -8.177526e+000 33 21 26
2.367343e+000 2.733914e+000 -1.181788e+001 150 121 93
2.785626e+000 2.529395e+000 -1.046232e+001 193 177 151
1.996928e+000 2.518178e+000 -1.052636e+001 249 230 198
-1.482032e-001 1.645865e+000 -6.530848e+000 86 69 40
-7.560355e-002 1.460783e+000 -5.892574e+000 176 147 103
-7.560355e-002 1.460783e+000 -5.892574e+000 176 147 103
3.881810e-001 1.433119e+000 -5.583405e+000 92 78 51
-8.194173e-002 1.447836e+000 -5.751958e+000 223 207 171
-2.358003e-002 1.446781e+000 -5.692671e+000 108 94 68
-8.187290e-002 1.463354e+000 -5.754799e+000 112 100 74
3.893859e-001 -1.608865e-001 -6.391748e+000 12 7 2
2.475129e-001 -3.401260e-002 -6.527626e+000 84 81 66
3.314820e-001 7.968072e-001 -6.187412e+000 148 134 107
3.431169e-002 1.050783e+000 -6.244761e+000 236 213 164
6.877071e-002 1.102821e+000 -6.228186e+000 33 6 3
2.701380e+000 2.248893e+000 -1.210991e+001 244 190 133
2.965092e+000 2.316644e+000 -1.214128e+001 227 182 128
2.513535e+000 2.317099e+000 -1.202717e+001 238 179 118
3.099264e+000 2.343058e+000 -1.200832e+001 232 187 130
2.834653e+000 2.438575e+000 -1.178759e+001 255 209 154
2.874396e+000 2.533564e+000 -1.204135e+001 70 26 0
8.126575e-002 1.194530e+000 -6.111263e+000 177 145 104
2.886987e+000 2.475000e+000 -1.173971e+001 228 178 119
2.468507e+000 2.576587e+000 -1.203290e+001 196 129 56
2.621285e+000 2.660437e+000 -1.186118e+001 53 14 0
2.640257e+000 2.693340e+000 -1.178876e+001 255 210 157
3.103484e-001 1.174056e+000 -5.710556e+000 74 44 8
3.103484e-001 1.174056e+000 -5.710556e+000 74 44 8
7.568365e-002 1.294600e+000 -6.118401e+000 224 189 147
2.489513e+000 2.559767e+000 -1.048296e+001 192 172 145
1.798122e-001 1.234537e+000 -5.754914e+000 201 173 131
1.033785e-001 1.347414e+000 -6.005696e+000 247 215 167
4.251032e-002 1.427569e+000 -5.644308e+000 98 83 58
-6.365288e-004 1.438224e+000 -5.674076e+000 172 158 130
-1.596647e-002 1.445321e+000 -5.686069e+000 121 106 82
-1.643340e-001 1.504400e+000 -5.897761e+000 91 80 50
-5.507294e-002 1.456541e+000 -5.720961e+000 168 158 133
-7.031055e-001 1.427400e+000 -5.701069e+000 46 48 45
1.417977e-001 4.478542e-001 -6.165929e+000 88 73 44
3.302589e-001 5.631946e-001 -6.239081e+000 149 136 104
3.302589e-001 5.631946e-001 -6.239081e+000 149 136 104
2.503916e-001 8.860575e-001 -6.390146e+000 81 74 59
2.929917e-001 1.011100e+000 -5.981138e+000 63 48 24
2.539308e-001 1.087521e+000 -6.290144e+000 96 87 70
3.054340e+000 2.216644e+000 -1.220138e+001 90 50 9
2.915591e+000 2.284142e+000 -1.223931e+001 46 8 0
2.442335e+000 2.490423e+000 -1.209001e+001 248 194 134
2.692454e+000 2.468141e+000 -1.193914e+001 255 204 137
2.986594e+000 2.492292e+000 -1.181556e+001 238 180 121
2.662284e+000 2.618435e+000 -1.188058e+001 255 231 164
2.530123e+000 2.735131e+000 -1.195827e+001 249 197 133
7.925510e-002 1.290534e+000 -6.094985e+000 161 128 85
2.467335e+000 2.524007e+000 -1.043682e+001 145 128 103
7.689458e-002 1.305567e+000 -6.137393e+000 131 103 64
3.290593e-002 1.348575e+000 -5.773128e+000 195 163 114
-1.775580e-001 1.489790e+000 -5.912341e+000 79 67 44
-5.031366e-002 1.442417e+000 -5.722376e+000 222 201 170
-1.512081e-001 1.478120e+000 -5.850424e+000 176 165 147
2.427745e-001 -5.058706e-002 -6.337950e+000 80 71 56
3.886322e-001 5.116395e-002 -6.357355e+000 150 137 113
2.423166e-001 3.709048e-001 -6.280022e+000 88 77 55
1.627744e-001 1.026731e-001 -6.266817e+000 28 26 27
3.079324e-001 1.424691e+000 -5.579104e+000 146 139 123
2.498822e-001 8.249536e-002 -6.330973e+000 2 1 0
3.381605e-001 1.016319e+000 -5.928520e+000 212 198 158
5.090784e-001 1.442936e+000 -5.683635e+000 200 182 157
3.169594e-001 9.960443e-002 -6.350890e+000 166 149 121
3.181899e-001 1.490889e-001 -6.344747e+000 161 144 115
2.924917e-001 8.239238e-001 -6.193557e+000 92 80 68
-1.244228e+000 1.128802e+000 -8.621423e+000 46 20 3
4.927581e-001 1.160392e+000 -6.019175e+000 182 158 122
5.307179e-001 1.349579e+000 -5.749088e+000 176 142 104
8.975320e-001 1.668687e+000 -6.517572e+000 210 179 133
4.171121e-001 1.376475e-002 -6.392572e+000 152 174 217
3.008185e-001 1.803663e-002 -6.370845e+000 87 74 57
2.746318e-001 5.714269e-001 -6.219227e+000 135 120 97
3.094047e-001 7.347948e-001 -6.214798e+000 164 153 123
9.273008e-001 2.676512e+000 -1.118106e+001 220 199 168
-4.710847e-001 1.587783e+000 -6.382928e+000 203 185 165
4.090200e-001 -1.507608e-001 -6.384491e+000 161 145 128
2.496776e-001 -8.509129e-002 -6.327782e+000 7 4 5
3.554834e-001 1.464774e-002 -6.365346e+000 152 136 110
2.410927e-001 1.764473e-001 -6.278416e+000 85 73 51
3.475047e-001 3.156119e-001 -6.291285e+000 168 154 128
-1.792656e+000 3.981496e-001 -9.072773e+000 198 204 227
3.110518e-001 6.128067e-001 -6.242551e+000 179 165 136
-1.812188e+000 4.537257e-001 -9.060455e+000 86 69 16
3.090111e-001 7.583099e-001 -6.212321e+000 187 176 144
-1.316137e+000 1.148176e+000 -8.689552e+000 176 132 65
4.864858e-001 1.108121e+000 -6.337718e+000 21 14 6
4.208050e-001 1.079455e+000 -5.971493e+000 108 82 49
4.812409e-001 1.104533e+000 -6.014408e+000 138 116 92
1.483430e-001 1.334809e+000 -5.706900e+000 230 198 151
5.998865e-001 1.506437e+000 -6.158612e+000 95 81 70
7.214189e-001 1.467727e+000 -5.807905e+000 56 46 36
3.263622e-001 -1.710378e-001 -6.422502e+000 17 12 8
3.085144e-001 -1.625556e-001 -6.393605e+000 15 11 8
3.559628e-001 5.367916e-001 -6.250435e+000 45 36 29
2.879836e-001 5.918945e-001 -6.234331e+000 119 105 79
2.879836e-001 5.918945e-001 -6.234331e+000 119 105 79
-1.819506e+000 4.083019e-001 -9.059698e+000 97 81 35
3.003124e-001 7.497668e-001 -6.208402e+000 75 62 38
2.910526e-001 8.013708e-001 -6.185982e+000 77 64 47
3.049070e-001 9.212898e-001 -6.175705e+000 13 10 1
4.411355e-001 2.289542e+000 -1.362357e+001 135 111 79
3.107154e-001 1.046615e+000 -5.924688e+000 253 238 205
3.927587e-001 1.056760e+000 -5.944001e+000 137 104 70
2.132750e-001 1.058064e+000 -5.947275e+000 165 132 91
4.702241e-001 1.132460e+000 -5.997507e+000 233 204 169
1.327834e+000 2.709455e+000 -1.313504e+001 138 107 56
4.798150e-001 1.168316e+000 -5.993881e+000 149 124 94
5.956889e-001 1.409984e+000 -6.179127e+000 118 98 74
6.032714e-001 1.418097e+000 -6.180986e+000 249 215 167
5.948489e-001 1.422308e+000 -6.176822e+000 113 96 71
6.019517e-001 1.435605e+000 -6.183603e+000 239 210 162
5.955950e-001 1.437847e+000 -6.170741e+000 111 95 71
6.908760e-001 1.516210e+000 -6.185299e+000 118 100 80
5.310605e-001 1.431319e+000 -5.642297e+000 88 75 60
3.076143e-001 -1.215760e-001 -6.398589e+000 86 75 55
3.807445e-001 -6.623319e-003 -6.351071e+000 135 127 108
2.570579e-001 3.659767e-002 -6.328265e+000 62 49 32
2.982094e-001 6.709980e-002 -6.350530e+000 124 112 90
3.126260e-001 1.134503e-001 -6.356098e+000 172 156 128
2.335507e-001 4.103266e-001 -6.223046e+000 80 67 47
2.539752e-001 4.472376e-001 -6.232233e+000 118 110 90
-1.778402e+000 4.173543e-001 -9.095081e+000 100 86 32
2.843716e-001 7.700836e-001 -6.200367e+000 59 51 38
3.103351e-001 8.018431e-001 -6.199786e+000 170 155 126
-1.141702e+000 9.912609e-001 -8.624337e+000 48 26 2
-1.932988e+000 1.205244e+000 -8.624758e+000 220 188 137
-1.932988e+000 1.205244e+000 -8.624758e+000 220 188 137
3.098228e-001 9.915930e-001 -5.930965e+000 228 211 168
1.210138e+000 2.614279e+000 -1.331235e+001 55 25 2
1.272948e+000 2.636189e+000 -1.330236e+001 66 31 5
1.304729e+000 2.701213e+000 -1.321592e+001 64 43 4
4.722863e-001 1.163751e+000 -5.994565e+000 225 193 155
6.034120e-001 1.351559e+000 -6.194154e+000 238 213 171
4.856104e-001 1.299719e+000 -5.729737e+000 205 173 134
3.083030e-001 -1.833634e-001 -6.415827e+000 66 58 46
3.058709e-001 -9.491813e-002 -6.392574e+000 65 54 30
2.963252e-001 1.201666e-001 -6.332584e+000 37 24 8
3.045980e-001 4.608811e-001 -6.274349e+000 95 79 54
2.770498e-001 4.847499e-001 -6.248258e+000 80 68 42
-1.769655e+000 4.387313e-001 -9.091325e+000 203 177 116
1.893964e-001 6.362430e-001 -6.139396e+000 66 55 37
1.778848e-001 6.589924e-001 -6.123710e+000 125 109 86
1.778848e-001 6.589924e-001 -6.123710e+000 125 109 86
1.599503e-001 7.630013e-001 -6.087935e+000 77 60 42
-1.239175e+000 8.875792e-001 -8.716892e+000 173 151 91
-1.141543e+000 9.732452e-001 -8.644229e+000 120 101 49
-1.248370e+000 9.858849e-001 -8.686322e+000 184 143 87
-1.336376e+000 9.986723e-001 -8.730275e+000 207 168 116
-1.336376e+000 9.986723e-001 -8.730275e+000 207 168 116
-1.527989e+000 1.024435e+000 -8.695014e+000 205 175 103
-1.933347e+000 1.187714e+000 -8.629689e+000 52 25 0
2.978071e-001 9.593944e-001 -5.930483e+000 199 175 146
3.081069e-001 9.966517e-001 -5.920779e+000 90 68 38
3.943596e-001 1.075929e+000 -5.956773e+000 117 82 54
1.326785e+000 2.591967e+000 -1.310151e+001 79 57 11
-2.810177e+000 2.463857e+000 -1.039068e+001 28 15 6
8.758694e-001 2.656318e+000 -1.109333e+001 213 193 158
-2.091618e+000 2.328683e+000 -9.822848e+000 237 204 171
-2.308920e+000 2.512093e+000 -1.046524e+001 36 19 6
-5.781279e-001 1.599104e+000 -6.445520e+000 185 186 169
8.917665e-001 1.636095e+000 -6.547623e+000 207 200 179
2.777518e-001 -4.494223e-002 -6.364635e+000 114 102 86
3.082314e-001 8.490082e-003 -6.373399e+000 77 71 45
2.646991e-001 5.034101e-002 -6.333151e+000 123 115 94
1.438942e-001 1.837496e-001 -6.206720e+000 176 162 141
3.106720e-001 5.154097e-001 -6.260080e+000 164 149 120
2.613092e-001 5.629212e-001 -6.214947e+000 69 57 33
2.632722e-001 5.816083e-001 -6.211233e+000 81 67 42
-1.621053e+000 3.673498e-001 -9.285609e+000 89 95 85
1.964582e-001 6.575832e-001 -6.139781e+000 82 69 52
1.673483e-001 7.178126e-001 -6.099924e+000 121 105 89
1.864831e-001 7.301017e-001 -6.118530e+000 66 53 34
1.657707e-001 7.620700e-001 -6.093273e+000 120 104 85
-8.162546e-002 9.922563e-001 -1.017526e+001 42 32 23
3.770879e-001 9.847520e-001 -6.135721e+000 152 137 118
3.720688e-001 1.001970e+000 -5.925216e+000 93 75 53
2.934935e-002 1.057991e+000 -6.257984e+000 81 61 32
1.372762e+000 2.727951e+000 -1.312417e+001 120 102 75
4.883709e-001 1.185375e+000 -5.760412e+000 87 62 32
-2.971418e+000 2.520438e+000 -1.032947e+001 41 21 0
7.553849e-001 1.682561e+000 -6.742131e+000 108 110 117
6.878171e-001 1.457932e+000 -5.765535e+000 64 48 32
5.094629e-001 1.427454e+000 -5.625121e+000 118 108 90
3.282118e-001 1.416674e+000 -5.575338e+000 115 103 81
5.662343e-001 1.450217e+000 -5.657792e+000 92 79 60
2.796144e-001 -1.043537e-001 -6.367005e+000 114 108 94
2.678835e-001 -1.001939e-001 -6.360291e+000 53 48 29
2.056354e-001 -8.642316e-002 -6.303132e+000 74 66 45
3.037216e-001 -1.050793e-001 -6.393005e+000 122 113 90
2.625536e-001 1.016551e-001 -6.307775e+000 52 43 33
2.721404e-001 1.188915e-001 -6.318936e+000 121 109 87
2.466015e-001 2.719586e-001 -6.263915e+000 127 112 89
2.883680e-001 5.872321e-001 -6.231652e+000 126 111 90
3.035168e-001 6.799984e-001 -6.225261e+000 69 57 35
3.068317e-001 6.830291e-001 -6.225630e+000 173 159 133
3.074341e-001 7.533949e-001 -6.210398e+000 175 164 134
4.645160e-001 7.721863e-001 -6.149308e+000 168 152 127
1.546783e-001 7.672362e-001 -6.082296e+000 123 108 87
3.705257e-002 1.036644e+000 -6.260162e+000 61 43 19
4.805427e-001 1.076494e+000 -6.286116e+000 162 149 126
1.339570e+000 2.684420e+000 -1.309597e+001 82 54 13
-2.099286e+000 2.258908e+000 -9.851405e+000 170 146 131
4.078941e-001 1.173062e+000 -5.721004e+000 253 226 194
4.353328e-001 1.178048e+000 -5.730871e+000 101 77 42
4.353328e-001 1.178048e+000 -5.730871e+000 101 77 42
-2.842655e+000 2.467325e+000 -1.037149e+001 35 5 0
7.060616e-001 1.464950e+000 -5.790135e+000 144 135 118
2.271467e-001 1.423345e+000 -5.590531e+000 205 191 162
3.855052e-001 7.470849e-002 -6.339298e+000 130 115 86
3.950552e-001 -1.495973e-001 -6.384209e+000 26 16 5
2.970752e-001 1.030744e+000 -5.979754e+000 194 173 144
3.907554e-001 8.383027e-002 -6.331571e+000 117 112 87
-6.390633e-002 1.373199e+000 -5.886625e+000 184 152 101
4.451679e-002 1.437776e+000 -5.746327e+000 191 158 105
-1.079241e-001 1.467755e+000 -5.780211e+000 163 157 135
-1.077072e-001 1.467806e+000 -5.780451e+000 163 157 135
-2.023956e-002 1.446897e+000 -5.688597e+000 158 143 119
1.312476e-001 2.036876e-001 -6.222245e+000 59 44 25
2.976941e-001 1.222149e+000 -5.896829e+000 214 182 141
7.978489e-002 1.440030e+000 -5.622205e+000 69 58 40
3.790786e-001 -9.593773e-003 -6.361353e+000 122 111 86
-8.207036e+000 5.617924e+000 -2.776078e+001 10 25 31
2.484567e-001 3.608837e-001 -6.248532e+000 57 49 28
1.431108e+001 -4.000804e+000 -1.836665e+001 132 128 125
1.422975e+001 -3.149795e+000 -1.794848e+001 177 161 131
1.440572e+001 -2.943447e+000 -1.825330e+001 88 74 58
1.453394e+001 -2.117242e+000 -1.785013e+001 255 241 189
1.470115e+001 -4.127145e+000 -1.833174e+001 250 232 157
1.474339e+001 -3.776355e+000 -1.843607e+001 239 226 192
1.476236e+001 -3.464760e+000 -1.747998e+001 185 147 100
1.397540e+001 -3.922956e+000 -1.841305e+001 254 239 158
1.465144e+001 -1.759895e+000 -1.782940e+001 240 223 153
1.416942e+001 -3.900368e+000 -1.948088e+001 74 55 49
1.442503e+001 -2.243411e+000 -1.796313e+001 142 127 99
1.457563e+001 -2.416861e+000 -1.780437e+001 106 75 49
1.433720e+001 -1.749779e+000 -1.774798e+001 132 122 87
2.223830e-001 9.112499e-001 -6.172438e+000 25 24 21
1.477194e+001 -4.153013e+000 -1.784109e+001 62 45 29
1.477040e+001 -3.996429e+000 -1.831784e+001 92 61 40
1.473393e+001 -3.928849e+000 -1.817681e+001 240 204 150
1.468967e+001 -3.694052e+000 -1.703591e+001 66 47 43
1.458826e+001 -3.528508e+000 -1.695171e+001 110 66 53
1.423416e+001 -3.281030e+000 -1.821156e+001 244 232 206
1.488472e+001 -3.317039e+000 -1.805209e+001 67 45 36
1.478863e+001 -3.292107e+000 -1.797245e+001 67 45 36
1.406251e+001 -3.081920e+000 -1.808755e+001 255 246 213
1.495072e+001 -2.941881e+000 -1.812831e+001 202 172 119
1.471730e+001 -2.522328e+000 -1.745315e+001 66 38 17
2.286961e-001 8.951138e-001 -6.175338e+000 25 26 20
-1.298328e-001 1.461620e+000 -5.818734e+000 189 173 147
1.408382e+001 -4.297482e+000 -1.943409e+001 87 76 72
1.480225e+001 -4.019182e+000 -1.748123e+001 117 107 87
1.476583e+001 -4.060186e+000 -1.827267e+001 251 232 167
1.486951e+001 -4.093035e+000 -1.836094e+001 251 232 167
1.453551e+001 -3.841570e+000 -1.705372e+001 105 89 72
1.475916e+001 -3.955245e+000 -1.778713e+001 64 50 32
1.472189e+001 -3.857079e+000 -1.702259e+001 82 54 32
1.470220e+001 -3.552263e+000 -1.817517e+001 91 62 35
1.476423e+001 -3.327274e+000 -1.693296e+001 80 53 28
1.465373e+001 -2.027957e+000 -1.675296e+001 67 51 35
1.456637e+001 -1.749883e+000 -1.655679e+001 253 238 212
1.498274e+001 -1.734723e+000 -1.777681e+001 63 45 38
1.499778e+001 -1.502877e+000 -1.785031e+001 223 213 198
1.848476e-001 1.060710e+000 -5.960739e+000 162 133 93
2.006532e-001 1.279989e+000 -5.916083e+000 43 14 1
-6.919651e-003 1.439411e+000 -5.680456e+000 162 148 119
1.458497e+001 -4.503237e+000 -1.934287e+001 81 63 55
1.454462e+001 -4.212987e+000 -1.716506e+001 205 192 146
1.455683e+001 -4.134410e+000 -1.715552e+001 210 197 152
1.444061e+001 -3.871807e+000 -2.013948e+001 120 106 102
1.444061e+001 -3.871807e+000 -2.013948e+001 120 106 102
1.446596e+001 -3.741994e+000 -1.990553e+001 126 102 91
1.435179e+001 -3.242887e+000 -1.805205e+001 166 151 124
1.435179e+001 -3.242887e+000 -1.805205e+001 166 151 124
1.485586e+001 -2.425985e+000 -2.001625e+001 121 108 99
1.399743e+001 -2.038744e+000 -1.791847e+001 159 136 89
1.454289e+001 -1.835753e+000 -1.768959e+001 100 64 32
2.961349e-001 1.020829e+000 -5.972925e+000 40 24 7
2.006098e-001 1.420173e+000 -6.424973e+000 227 194 151
3.208299e-003 1.310880e+000 -5.810493e+000 253 231 184
1.503103e+001 -4.248847e+000 -1.844323e+001 180 133 89
1.491481e+001 -3.501375e+000 -1.808983e+001 43 23 7
1.496960e+001 -1.581660e+000 -1.775340e+001 103 77 44
7.790697e-002 1.192989e+000 -6.106898e+000 177 145 104
3.070716e-001 1.171563e+000 -5.714648e+000 223 193 157
-1.834747e-001 1.507871e+000 -5.929816e+000 92 78 51
1.461717e+001 -3.518801e+000 -1.991783e+001 66 50 37
1.495982e+001 -3.038212e+000 -1.801708e+001 50 18 1
1.454738e+001 -2.900969e+000 -1.793217e+001 65 32 2
1.465034e+001 -1.883302e+000 -1.972859e+001 127 109 87
2.115145e-001 9.245524e-001 -6.168823e+000 110 106 94
-9.544940e-002 1.405829e+000 -5.948622e+000 198 166 115
-1.242343e-001 1.503317e+000 -6.027970e+000 165 132 91
-7.547899e-002 1.459325e+000 -5.742065e+000 189 177 151
3.171788e-001 1.009113e+000 -5.922130e+000 111 85 58
6.298721e-001 1.462838e+000 -6.175122e+000 247 215 162
2.426841e-001 -7.601338e-002 -6.344020e+000 80 73 55
-1.179424e+000 3.130148e-001 -1.002843e+001 189 197 219
5.116065e-001 1.422441e+000 -5.631323e+000 207 189 165
3.274326e-001 1.424742e+000 -5.575439e+000 169 161 142
2.633789e-001 6.660082e-002 -6.329597e+000 123 115 95
2.691669e-001 4.630447e-001 -6.243243e+000 66 58 38
6.126820e-001 1.211228e+000 -6.233860e+000 163 147 131
4.504890e-001 1.221998e+000 -5.957513e+000 201 163 120
5.886327e-001 1.440445e+000 -5.680029e+000 103 88 70
4.018328e-001 1.420431e+000 -5.590520e+000 111 98 82
3.075182e-001 7.929806e-001 -6.204563e+000 159 148 120
3.440812e-001 1.051684e+000 -5.925930e+000 165 130 95
5.331661e-001 1.335583e+000 -5.753566e+000 195 162 121
2.566675e-001 4.100802e-002 -6.328373e+000 75 59 43
3.015676e-001 9.387702e-002 -6.355921e+000 80 68 44
3.478841e-001 6.100434e-001 -6.230441e+000 153 141 117
5.476878e-001 1.367679e+000 -5.755328e+000 252 223 183
5.476878e-001 1.367679e+000 -5.755328e+000 252 223 183
3.105150e-001 5.016753e-001 -6.268077e+000 175 160 131
1.565299e-001 7.505024e-001 -6.089676e+000 76 61 42
1.565299e-001 7.505024e-001 -6.089676e+000 76 61 42
2.973222e-001 8.932518e-001 -6.177596e+000 46 43 24
1.938674e-001 1.355145e+000 -9.798006e+000 193 168 104
3.736451e-001 9.572203e-001 -5.939132e+000 195 179 155
6.149040e-001 1.447077e+000 -6.179441e+000 254 222 175
4.567852e-001 1.422901e+000 -5.605520e+000 197 182 162
4.600554e-001 1.426904e+000 -5.606599e+000 111 100 79
3.841028e-001 1.434014e+000 -5.579041e+000 115 101 75
3.053470e-001 5.137197e-001 -6.263650e+000 98 82 56
2.771807e-001 6.588963e-001 -6.209094e+000 76 67 43
1.643117e-001 7.419614e-001 -6.095237e+000 130 115 96
5.018088e-001 1.174730e+000 -6.023234e+000 100 75 55
5.296904e-001 1.414981e+000 -5.732014e+000 254 226 188
4.144918e-001 1.419945e+000 -5.589759e+000 105 93 79
8.847278e-001 1.390763e+000 -5.499805e+000 109 94 71
1.396624e+001 -2.838770e+000 -1.816641e+001 251 239 160
1.416204e+001 -3.659439e+000 -1.824061e+001 246 231 199
2.861533e+000 1.527142e+000 -8.600687e+000 132 102 41
1.438381e+001 -3.805259e+000 -1.821022e+001 134 118 102
1.468243e+001 -3.875312e+000 -2.041044e+001 130 114 92
1.455218e+001 -2.881051e+000 -1.993527e+001 237 216 195
1.439693e+001 -5.705998e-001 -1.922443e+001 59 44 29
1.443922e+001 -5.749072e-001 -1.926584e+001 59 44 29
1.451354e+001 -3.322720e+000 -1.993745e+001 60 43 35
1.448273e+001 -1.255119e+000 -1.946365e+001 74 62 47
2.898398e+000 1.465720e+000 -8.609135e+000 130 108 60
1.437195e+001 -3.285101e+000 -1.982020e+001 69 55 45
4.830718e-001 4.730892e-001 -6.233534e+000 116 110 90
1.443142e+001 -3.637573e+000 -1.821928e+001 247 236 204
1.449196e+001 -3.408229e+000 -1.987005e+001 158 147 141
-1.750352e-002 1.451424e+000 -5.798370e+000 241 210 164
-7.277384e-002 1.455074e+000 -5.956412e+000 226 198 150
1.397023e-001 1.251242e+000 -5.729437e+000 255 251 208
1.940355e-001 1.308369e+000 -5.925008e+000 251 221 161
2.586745e-001 -4.744998e-002 -6.547807e+000 74 69 47
2.052889e-001 1.316088e+000 -5.900977e+000 127 97 59
2.477139e-001 5.075455e-001 -6.384545e+000 71 58 41
2.752859e-001 1.697460e-001 -6.558452e+000 13 9 5
3.065533e-001 1.030314e+000 -5.967822e+000 90 67 49
4.453200e+000 2.331520e+000 -1.190096e+001 22 16 10
4.453200e+000 2.331520e+000 -1.190096e+001 22 16 10
2.688519e-001 -1.220140e-001 -6.538896e+000 8 5 0
2.611811e-001 4.164651e-001 -6.406358e+000 86 68 54
2.599637e-001 4.491419e-001 -6.422146e+000 68 62 50
1.045761e-001 1.083024e+000 -6.204767e+000 68 51 32
7.960494e-002 1.154244e+000 -6.194589e+000 168 146 115
-7.869689e-002 1.384817e+000 -5.909098e+000 247 219 170
9.661972e-002 1.081145e+000 -6.213164e+000 237 217 164
1.089788e+000 1.052112e+000 -5.995153e+000 243 233 199
6.092743e-002 1.115210e+000 -6.211959e+000 101 76 47
4.581737e+000 2.310267e+000 -1.192431e+001 27 12 1
4.302825e+000 2.383433e+000 -1.177069e+001 37 22 1
3.225903e+000 2.459694e+000 -1.015077e+001 55 34 13
2.933801e-001 1.258735e+000 -5.899709e+000 255 232 176
4.064373e-001 -1.867751e-002 -6.361231e+000 137 128 98
