ply
format ascii 1.0
element face 0
property list uchar int vertex_indices
element vertex 281
property float x
property float y
property float z
property uchar diffuse_red
property uchar diffuse_green
property uchar diffuse_blue
end_header
1.144667e+000 -2.411796e-001 2.622596e+000 175 175 175
1.277328e+000 -1.519991e-002 2.508412e+000 185 185 185
2.781128e-002 8.784907e-001 2.137734e+000 255 255 255
1.269051e+000 -5.741907e-002 2.498369e+000 187 187 187
1.277328e+000 -1.519991e-002 2.508412e+000 185 185 185
1.301210e+000 2.420107e-001 2.609852e+000 132 132 132
7.327029e-001 4.595552e-001 2.472833e+000 193 193 193
3.978786e-001 5.942366e-001 2.470206e+000 47 47 47
3.137805e-002 8.938303e-001 2.139476e+000 31 31 31
3.137805e-002 8.938303e-001 2.139476e+000 31 31 31
3.137805e-002 8.938303e-001 2.139476e+000 31 31 31
1.223527e-002 9.317847e-001 2.166978e+000 216 216 216
4.207248e-002 5.200482e-001 2.125010e+000 24 24 24
8.124621e-001 4.679897e-001 2.420358e+000 130 130 130
7.888277e-001 4.800721e-001 2.446199e+000 17 17 17
7.466118e-001 6.869600e-001 2.570883e+000 59 59 59
5.505913e-001 8.047795e-001 2.648925e+000 62 62 62
1.358473e+000 -1.836226e-002 2.331340e+000 174 174 174
7.711879e-001 6.420892e-001 2.515833e+000 75 75 75
3.726753e-001 6.375119e-001 2.477830e+000 109 109 109
3.726753e-001 6.375119e-001 2.477830e+000 109 109 109
7.124730e-001 6.663636e-001 2.544662e+000 32 32 32
1.610928e-001 8.491721e-001 2.158683e+000 76 76 76
5.243659e-001 8.370897e-001 2.666982e+000 160 160 160
7.509941e-001 -2.185738e+000 4.285223e+000 29 29 29
1.442201e+000 3.259716e-001 2.327734e+000 189 189 189
1.442201e+000 3.259716e-001 2.327734e+000 189 189 189
1.284899e+000 1.989175e-001 2.622894e+000 183 183 183
7.101537e-001 4.727563e-001 2.507060e+000 67 67 67
8.003509e-001 6.973178e-001 2.576950e+000 19 19 19
4.229977e-001 7.038634e-001 2.481263e+000 48 48 48
-3.350807e-003 8.742587e-001 2.126326e+000 219 219 219
4.378833e-001 7.247642e-001 2.505376e+000 200 200 200
1.150311e+000 -1.920219e-001 2.637361e+000 173 173 173
7.732399e-001 4.412401e-001 2.445574e+000 33 33 33
8.924266e-001 5.030890e-001 2.449769e+000 48 48 48
8.391181e-001 4.929187e-001 2.465591e+000 123 123 123
6.684128e-001 4.919592e-001 2.503218e+000 30 30 30
7.468051e-001 6.818068e-001 2.557178e+000 29 29 29
2.104980e-002 9.862388e-001 2.187492e+000 181 181 181
7.057090e-003 9.847424e-001 2.186596e+000 188 188 188
5.362863e-001 8.543666e-001 2.678788e+000 68 68 68
1.469279e+000 -1.634592e+000 3.228173e+000 116 116 116
1.469279e+000 -1.634592e+000 3.228173e+000 116 116 116
1.049942e+000 -1.925897e+000 4.123518e+000 107 107 107
1.766250e-001 8.447636e-001 2.143634e+000 85 85 85
1.361167e-001 9.298009e-001 2.170826e+000 114 114 114
9.952366e-002 9.552842e-001 2.177197e+000 195 195 195
1.151682e-002 9.773118e-001 2.174161e+000 125 125 125
1.065302e+000 9.608072e-001 2.765012e+000 36 36 36
1.418432e+000 -1.792660e+000 3.239854e+000 114 114 114
1.192268e+000 -1.997032e+000 3.696210e+000 110 110 110
1.192268e+000 -1.997032e+000 3.696210e+000 110 110 110
1.175643e+000 -1.769829e+000 3.853644e+000 127 127 127
1.270284e+000 -1.945620e-002 2.526778e+000 137 137 137
1.270284e+000 -1.945620e-002 2.526778e+000 137 137 137
1.284250e+000 2.780545e-002 2.528630e+000 185 185 185
1.444651e+000 3.002961e-001 2.313240e+000 213 213 213
1.305834e+000 1.382215e-001 2.579898e+000 198 198 198
7.753710e-001 4.532376e-001 2.457297e+000 162 162 162
7.753710e-001 4.532376e-001 2.457297e+000 162 162 162
2.116495e-001 7.306475e-001 2.079055e+000 119 119 119
2.076080e-001 7.968052e-001 2.101250e+000 117 117 117
5.054682e-001 7.864114e-001 2.626400e+000 62 62 62
2.943127e-002 9.760722e-001 2.180458e+000 115 115 115
1.439298e+000 -1.779263e+000 3.202947e+000 111 111 111
1.322738e+000 -1.980170e+000 3.373289e+000 120 120 120
1.370048e+000 -1.816298e+000 3.357346e+000 117 117 117
1.226772e+000 -2.039926e+000 3.577132e+000 117 117 117
1.334534e+000 -1.796180e+000 3.428902e+000 121 121 121
1.245164e+000 -1.830157e+000 3.631767e+000 111 111 111
1.232780e+000 -1.821602e+000 3.647879e+000 53 53 53
1.143720e+000 -2.290770e-001 2.632543e+000 15 15 15
1.150451e+000 -2.089135e-001 2.622744e+000 177 177 177
1.287062e+000 -4.591332e-003 2.499949e+000 138 138 138
1.434867e+000 2.742319e-001 2.324479e+000 211 211 211
1.446331e+000 3.353865e-001 2.325395e+000 202 202 202
1.284260e+000 9.179335e-002 2.562023e+000 137 137 137
1.447493e+000 3.357996e-001 2.341690e+000 119 119 119
1.308641e+000 1.734120e-001 2.557747e+000 134 134 134
1.296363e+000 1.899057e-001 2.594378e+000 126 126 126
1.021396e+000 9.063598e-001 2.590688e+000 112 112 112
5.259372e-001 8.665705e-001 2.703947e+000 162 162 162
7.545537e-001 9.838840e-001 2.869857e+000 145 145 145
1.516101e+000 -1.543052e+000 3.111391e+000 109 109 109
1.266259e+000 -1.710504e+000 3.636756e+000 108 108 108
1.129175e+000 -2.382016e-001 2.625814e+000 186 186 186
1.436065e+000 2.923784e-001 2.314713e+000 117 117 117
1.435447e+000 3.170007e-001 2.315267e+000 131 131 131
1.450348e+000 3.706170e-001 2.338651e+000 134 134 134
7.346767e-001 4.366442e-001 2.442876e+000 33 33 33
3.526111e-001 7.094796e-001 2.477577e+000 135 135 135
5.421372e-001 7.844374e-001 2.632337e+000 184 184 184
1.478122e+000 -1.555106e+000 3.171007e+000 36 36 36
1.218388e+000 -1.718171e+000 3.756912e+000 108 108 108
1.097524e+000 -1.870513e+000 3.968811e+000 118 118 118
1.017354e+000 -2.025172e+000 4.124982e+000 116 116 116
1.457805e+000 2.735984e-001 2.256342e+000 105 105 105
2.664931e-001 7.395664e-001 2.420665e+000 21 21 21
2.664931e-001 7.395664e-001 2.420665e+000 21 21 21
1.163166e+000 5.569856e-001 2.924819e+000 152 152 152
3.392333e-001 5.740296e-001 2.462988e+000 237 237 237
5.585601e-001 8.530566e-001 2.817774e+000 7 7 7
9.246083e-001 5.305015e-001 2.496266e+000 144 144 144
9.540943e-001 5.354910e-001 2.579048e+000 25 25 25
1.138144e+000 -2.184709e-001 2.608259e+000 178 178 178
3.436208e-001 5.066133e-001 2.476993e+000 83 83 83
7.420471e-001 6.599324e-001 2.522135e+000 212 212 212
7.420471e-001 6.599324e-001 2.522135e+000 212 212 212
2.905239e-001 -2.643715e+000 4.256977e+000 10 10 10
8.638115e-001 5.030205e-001 2.471351e+000 143 143 143
3.214467e-001 7.440121e-001 2.501087e+000 84 84 84
-1.070068e+000 -9.987548e-002 5.438403e+000 32 32 32
4.704926e-001 -3.570394e+000 4.442338e+000 44 44 44
1.385708e+000 -1.605684e+000 3.377808e+000 66 66 66
1.319454e+000 -8.881326e-001 2.907086e+000 176 176 176
3.513740e-001 -2.577192e+000 4.298308e+000 85 85 85
2.012785e-001 8.193024e-001 2.109084e+000 112 112 112
1.560519e-001 8.713165e-001 2.159389e+000 199 199 199
3.444976e-001 7.477479e-001 2.550366e+000 33 33 33
1.310413e+000 -2.132405e+000 3.415701e+000 38 38 38
1.394037e+000 -1.768105e+000 3.278391e+000 40 40 40
1.058924e+000 -1.839540e+000 4.098853e+000 51 51 51
1.629400e-001 8.452320e-001 2.132080e+000 184 184 184
5.058251e-001 7.228293e-001 2.506486e+000 103 103 103
4.904407e-002 9.852268e-001 2.181863e+000 183 183 183
-1.203428e-002 9.930376e-001 2.187346e+000 114 114 114
1.064748e+000 9.617970e-001 2.762180e+000 36 36 36
-6.570174e-001 1.687791e-001 5.110696e+000 65 65 65
5.834196e-001 9.704536e-001 2.926192e+000 19 19 19
5.834196e-001 9.704536e-001 2.926192e+000 19 19 19
1.326590e+000 -1.946200e+000 3.424014e+000 99 99 99
9.193215e-001 -2.605675e+000 4.037879e+000 7 7 7
9.193215e-001 -2.605675e+000 4.037879e+000 7 7 7
1.405044e+000 -1.614202e+000 3.308880e+000 47 47 47
1.405044e+000 -1.614202e+000 3.308880e+000 47 47 47
1.309169e+000 -1.823929e+000 3.499836e+000 59 59 59
1.309169e+000 -1.823929e+000 3.499836e+000 59 59 59
8.534427e-001 -2.288801e+000 4.283587e+000 39 39 39
1.014383e+000 -1.903959e+000 4.083437e+000 40 40 40
1.146488e+000 -1.782032e-001 2.625116e+000 173 173 173
1.435192e+000 2.896775e-001 2.299344e+000 206 206 206
1.812171e-001 6.418219e-001 2.076376e+000 196 196 196
1.309961e+000 3.192047e-001 2.631698e+000 142 142 142
2.204737e-001 7.167908e-001 2.088263e+000 204 204 204
2.207612e-001 7.608607e-001 2.104682e+000 185 185 185
1.207620e+000 3.510269e-001 2.867148e+000 113 113 113
2.241636e-001 8.582867e-001 2.180010e+000 110 110 110
3.336163e-001 7.105817e-001 2.488467e+000 32 32 32
1.472112e-001 9.085865e-001 2.165897e+000 146 146 146
7.660644e-002 9.079479e-001 2.171967e+000 240 240 240
1.357630e-001 9.292619e-001 2.172098e+000 114 114 114
8.106429e-002 9.646686e-001 2.187793e+000 191 191 191
-2.945241e-002 9.736062e-001 2.179054e+000 192 192 192
9.956691e-001 9.663051e-001 2.661839e+000 131 131 131
4.680892e-001 9.153699e-001 2.781771e+000 76 76 76
1.005322e+000 9.640821e-001 2.722160e+000 52 52 52
1.470436e+000 -1.658228e+000 3.169569e+000 42 42 42
9.318620e-001 -2.634803e+000 4.017802e+000 75 75 75
1.395371e+000 -1.621927e+000 3.343717e+000 99 99 99
9.221290e-001 -2.514769e+000 4.123259e+000 97 97 97
8.771634e-001 -2.389811e+000 4.212694e+000 50 50 50
1.276260e+000 -9.870073e-001 3.032142e+000 90 90 90
1.195787e+000 -1.670234e+000 3.814841e+000 121 121 121
9.993270e-001 -1.914710e+000 4.161874e+000 47 47 47
1.143363e+000 -2.363534e-001 2.618350e+000 175 175 175
1.261011e+000 -8.110052e-003 2.538950e+000 184 184 184
1.278018e+000 4.499403e-002 2.540090e+000 160 160 160
1.443449e+000 3.690926e-001 2.350185e+000 205 205 205
7.548539e-001 4.305304e-001 2.450189e+000 150 150 150
5.700936e-001 5.111931e-001 2.510895e+000 35 35 35
1.231782e+000 3.482664e-001 2.845558e+000 142 142 142
4.966952e-001 7.605919e-001 2.488250e+000 199 199 199
-3.848950e-002 9.822457e-001 2.185872e+000 85 85 85
4.537988e-003 9.959869e-001 2.192010e+000 115 115 115
9.789668e-001 1.007812e+000 2.821208e+000 75 75 75
7.445298e-001 9.862630e-001 2.895653e+000 62 62 62
1.277279e+000 -2.092897e+000 3.412895e+000 104 104 104
1.401108e+000 -1.825001e+000 3.247402e+000 56 56 56
1.555964e+000 -1.495648e+000 3.039947e+000 46 46 46
1.454759e+000 -1.622135e+000 3.176226e+000 92 92 92
1.125647e+000 -2.223070e+000 3.728526e+000 88 88 88
8.548835e-001 -2.744835e+000 4.122109e+000 34 34 34
1.033195e+000 -2.371402e+000 3.876122e+000 47 47 47
1.212004e+000 -1.907444e+000 3.616998e+000 43 43 43
7.447364e-001 -2.781758e+000 4.353709e+000 76 76 76
6.867451e-001 -2.891650e+000 4.445852e+000 73 73 73
1.198748e+000 -1.835596e+000 3.722525e+000 109 109 109
1.280641e+000 -1.620576e+000 3.562352e+000 110 110 110
1.247566e+000 -1.725037e+000 3.660007e+000 55 55 55
6.444994e-001 -2.701968e+000 4.658866e+000 74 74 74
1.175979e+000 -1.771799e+000 3.855355e+000 127 127 127
9.775440e-001 -2.042184e+000 4.218107e+000 90 90 90
1.146075e+000 -2.398409e-001 2.592851e+000 32 32 32
1.033677e+000 -1.790103e+000 4.128835e+000 51 51 51
8.759374e-001 4.019567e-001 2.290896e+000 94 94 94
1.291857e+000 1.720355e-001 2.615828e+000 187 187 187
3.936360e-003 5.116784e-001 2.121336e+000 207 207 207
1.304016e+000 2.357541e-001 2.617627e+000 132 132 132
5.231368e-001 7.080267e-001 2.502573e+000 49 49 49
4.348615e-001 7.177197e-001 2.481242e+000 42 42 42
5.181715e-001 7.909794e-001 2.629994e+000 183 183 183
5.923601e-001 8.255175e-001 2.664523e+000 139 139 139
-1.322590e+000 1.796887e-001 5.381346e+000 109 109 109
-1.372245e+000 2.096848e-001 5.299501e+000 111 111 111
-1.372245e+000 2.096848e-001 5.299501e+000 111 111 111
1.126938e+000 -2.465460e+000 3.595623e+000 98 98 98
1.250702e+000 -2.181910e+000 3.437723e+000 48 48 48
1.239912e+000 -2.212834e+000 3.462054e+000 99 99 99
1.301518e+000 -2.032215e+000 3.357056e+000 37 37 37
1.253934e+000 -2.122932e+000 3.528009e+000 102 102 102
1.358494e+000 -1.862728e+000 3.362818e+000 45 45 45
1.305866e+000 -1.994875e+000 3.474592e+000 33 33 33
1.468807e+000 -1.535822e+000 3.184515e+000 100 100 100
1.133171e+000 -2.205290e+000 3.686193e+000 38 38 38
1.475728e+000 -1.494760e+000 3.185862e+000 40 40 40
9.988557e-001 -2.464279e+000 3.928448e+000 37 37 37
1.374516e+000 -1.614488e+000 3.352282e+000 31 31 31
1.428842e+000 -1.510931e+000 3.304759e+000 131 131 131
1.268925e+000 -1.794449e+000 3.529171e+000 50 50 50
1.335844e+000 -1.646295e+000 3.458477e+000 112 112 112
1.315339e+000 -1.658051e+000 3.515818e+000 108 108 108
1.153136e+000 -1.934175e+000 3.778555e+000 113 113 113
1.191754e+000 -9.907003e-001 3.186484e+000 166 166 166
9.692130e-001 -1.994895e+000 4.320091e+000 104 104 104
1.281637e+000 -5.102718e-002 2.506586e+000 138 138 138
1.461283e+000 2.623622e-001 2.256662e+000 165 165 165
1.448010e+000 3.126205e-001 2.311154e+000 112 112 112
1.282475e+000 1.663283e-001 2.602076e+000 102 102 102
1.450928e+000 4.138882e-001 2.337983e+000 213 213 213
2.296062e-002 5.555585e-001 2.123974e+000 179 179 179
7.308007e-001 4.172755e-001 2.462618e+000 145 145 145
7.480730e-001 4.417158e-001 2.463805e+000 138 138 138
7.352809e-001 4.493129e-001 2.473907e+000 215 215 215
1.409010e+000 4.981748e-001 2.492433e+000 155 155 155
2.053076e-001 7.211411e-001 2.079273e+000 207 207 207
7.454117e-001 4.780808e-001 2.522091e+000 154 154 154
7.454117e-001 4.780808e-001 2.522091e+000 154 154 154
2.106449e-002 8.109110e-001 2.105197e+000 162 162 162
6.154339e-002 9.240560e-001 2.159888e+000 178 178 178
5.050338e-002 9.342215e-001 2.166182e+000 214 214 214
-1.531150e+000 2.287328e-001 5.311196e+000 68 68 68
-1.434626e+000 2.376426e-001 5.338227e+000 97 97 97
-1.406386e+000 2.814521e-001 5.433542e+000 110 110 110
1.245112e+000 -2.140161e+000 3.502695e+000 85 85 85
1.573649e+000 -1.452051e+000 3.031892e+000 109 109 109
1.218940e+000 -2.151212e+000 3.562765e+000 39 39 39
1.486677e+000 -1.602428e+000 3.164906e+000 126 126 126
1.486677e+000 -1.602428e+000 3.164906e+000 126 126 126
8.060998e-001 -2.956265e+000 4.144312e+000 66 66 66
1.475953e+000 -1.547430e+000 3.164525e+000 36 36 36
1.365873e+000 -1.808641e+000 3.395577e+000 52 52 52
1.482470e+000 -1.499764e+000 3.175859e+000 104 104 104
1.482470e+000 -1.499764e+000 3.175859e+000 104 104 104
1.009248e+000 -2.408551e+000 3.907817e+000 82 82 82
8.327390e-001 -2.586878e+000 4.311200e+000 36 36 36
1.033073e+000 -2.147927e+000 3.970716e+000 43 43 43
9.970550e-001 -2.109273e+000 3.934708e+000 45 45 45
9.141595e-001 -2.320579e+000 4.127493e+000 91 91 91
1.030182e+000 -2.131268e+000 3.975546e+000 91 91 91
1.094277e+000 -1.959505e+000 3.888545e+000 96 96 96
1.259378e+000 -1.620849e+000 3.668563e+000 59 59 59
1.026095e+000 -1.973341e+000 4.073498e+000 60 60 60
1.364146e+000 -8.714736e-003 2.323551e+000 123 123 123
1.030597e+000 -1.892516e+000 4.144341e+000 98 98 98
1.211590e+000 -3.248145e-002 2.640849e+000 69 69 69
1.221626e+000 2.020500e-002 2.667708e+000 136 136 136
1.448791e+000 3.872650e-001 2.352286e+000 221 221 221
1.452304e+000 4.200237e-001 2.347650e+000 136 136 136
7.351563e-001 4.335153e-001 2.426505e+000 119 119 119
7.351563e-001 4.335153e-001 2.426505e+000 119 119 119
2.303086e-001 8.534640e-001 2.169911e+000 164 164 164
1.593535e-001 9.744521e-001 2.241602e+000 146 146 146
4.236174e-002 1.026090e+000 2.243111e+000 180 180 180
-1.439439e+000 1.558489e-001 5.344167e+000 101 101 101
5.924589e-001 1.828048e+000 5.113737e-001 0 255 0
5.968929e-001 1.857184e+000 4.709826e-001 255 255 0
3.326055e-001 2.142888e+000 5.317751e-001 255 0 0
3.341295e-001 2.173850e+000 4.925448e-001 255 255 0
7.620635e-002 1.811696e+000 6.201938e-001 0 255 0
6.926729e-002 1.841362e+000 5.805481e-001 255 255 0
