ply
format ascii 1.0
element face 0
property list uchar int vertex_indices
element vertex 886
property float x
property float y
property float z
property uchar diffuse_red
property uchar diffuse_green
property uchar diffuse_blue
end_header
5.116940e-001 1.004536e+000 -6.007008e+000 196 183 150
1.904679e-001 1.068534e+000 -6.332255e+000 82 66 39
1.926209e-001 1.077174e+000 -6.322491e+000 237 218 169
2.481242e-001 1.085856e+000 -6.298538e+000 212 191 149
5.046283e-001 1.052522e+000 -6.001195e+000 225 210 171
2.093505e+000 2.370906e+000 -1.242562e+001 193 130 58
2.232072e+000 2.389259e+000 -1.240329e+001 200 159 119
2.452113e+000 2.364460e+000 -1.225112e+001 97 43 2
2.530273e+000 2.358291e+000 -1.218403e+001 251 212 153
2.418134e+000 2.418567e+000 -1.220373e+001 254 215 142
2.188888e+000 2.489800e+000 -1.219315e+001 208 155 104
2.407574e+000 2.518241e+000 -1.228243e+001 47 13 0
2.444671e+000 2.507661e+000 -1.223030e+001 103 57 8
2.599346e+000 2.541972e+000 -1.218725e+001 253 221 152
-2.647688e+000 2.664649e+000 -1.280290e+001 114 101 87
-2.422895e+000 2.680062e+000 -1.268738e+001 97 82 54
-2.247822e+000 2.755656e+000 -1.283589e+001 77 70 52
6.384264e-001 1.259469e+000 -6.055266e+000 215 184 148
-1.679293e+000 2.505522e+000 -1.100574e+001 21 10 2
-1.331782e+000 2.147878e+000 -9.468176e+000 209 194 185
-1.331782e+000 2.147878e+000 -9.468176e+000 209 194 185
6.435262e-001 1.378271e+000 -5.780942e+000 229 200 156
6.236118e-001 1.462323e+000 -5.676567e+000 180 168 144
2.796677e-001 1.462798e+000 -5.682823e+000 186 175 149
3.174683e-001 1.459484e+000 -5.671092e+000 94 84 58
2.078103e-001 1.480167e+000 -5.711787e+000 147 137 113
6.239418e-001 1.474846e+000 -5.673487e+000 158 148 122
4.945113e-001 1.466036e+000 -5.645061e+000 163 157 134
4.285120e-001 4.465589e-003 -6.432177e+000 61 55 31
4.701260e-001 2.468881e-003 -6.459734e+000 141 129 104
4.701553e-001 8.028792e-002 -6.444903e+000 142 131 103
4.155646e-001 1.794660e-001 -6.382836e+000 110 99 81
4.022374e-001 1.961473e-001 -6.362651e+000 112 99 80
4.271552e-001 3.888509e-001 -6.345488e+000 66 58 37
4.660189e-001 4.656044e-001 -6.355220e+000 81 65 32
5.146439e-001 5.867358e-001 -6.313951e+000 156 142 113
4.836942e-001 7.323310e-001 -6.292292e+000 164 150 123
4.499206e-001 7.429163e-001 -6.287338e+000 95 88 64
4.840712e-001 7.688618e-001 -6.285395e+000 164 150 123
3.523010e-001 7.998774e-001 -6.189041e+000 100 88 73
8.111197e+000 2.839154e+000 -3.823127e+001 254 250 222
2.097398e+000 1.705624e+000 -1.638763e+001 59 51 40
1.107396e+001 3.461553e+000 -3.725635e+001 249 253 255
1.107396e+001 3.461553e+000 -3.725635e+001 249 253 255
1.783645e+000 1.736412e+000 -1.642168e+001 46 41 35
1.045064e+001 3.900452e+000 -3.762851e+001 252 255 253
1.125493e+001 4.728045e+000 -3.724797e+001 255 253 231
9.875055e+000 5.258118e+000 -3.801418e+001 193 185 152
9.672163e+000 5.384110e+000 -3.784354e+001 218 212 150
3.564085e-001 1.030523e+000 -6.143346e+000 128 119 107
1.838096e-001 1.081858e+000 -6.326569e+000 202 181 151
2.514225e-001 1.090025e+000 -6.299835e+000 97 73 35
6.116028e-001 1.083139e+000 -6.055772e+000 236 217 194
2.471191e+000 2.292263e+000 -1.223405e+001 254 216 157
5.149596e-001 1.111577e+000 -6.020173e+000 250 221 179
2.150933e+000 2.372358e+000 -1.233392e+001 254 223 164
3.184251e+000 2.399316e+000 -1.198695e+001 92 49 9
2.483407e+000 2.442654e+000 -1.222624e+001 252 212 140
2.621435e+000 2.521449e+000 -1.221394e+001 250 210 153
2.142855e+000 2.680178e+000 -1.229009e+001 255 209 139
2.854303e-001 1.468619e+000 -5.679355e+000 93 84 67
4.597033e-001 1.462347e+000 -5.651083e+000 173 165 144
4.557597e-001 1.470924e+000 -5.646188e+000 101 91 66
6.292332e-001 3.594528e-001 -6.356189e+000 157 176 206
4.622558e-001 1.313594e+000 -5.762019e+000 203 164 117
5.946377e-001 4.278500e-001 -6.335725e+000 163 181 205
5.946377e-001 4.278500e-001 -6.335725e+000 163 181 205
1.440560e+001 7.256346e-001 -3.616110e+001 232 111 108
5.552095e-001 2.137248e-002 -6.459811e+000 17 14 15
4.293268e-001 -1.459388e-001 -6.460746e+000 9 7 12
4.488562e-001 7.446818e-001 -6.286199e+000 91 76 55
5.359570e-001 1.135262e-001 -6.417968e+000 7 4 4
1.469107e+001 1.201653e+000 -3.598848e+001 254 255 252
1.283683e+001 4.606742e+000 -3.540596e+001 250 253 248
1.990327e-001 2.485926e+000 -1.034783e+001 31 24 9
1.430674e+001 9.538076e-001 -3.542583e+001 243 113 120
1.318188e+001 3.060808e+000 -3.610570e+001 253 252 255
1.324959e+001 3.351714e+000 -3.634803e+001 187 183 164
1.229365e+001 3.519145e+000 -3.719779e+001 241 244 243
1.350699e+001 3.643413e+000 -3.602114e+001 195 214 225
1.184513e+001 3.724971e+000 -3.655016e+001 243 253 253
2.892924e-001 1.299975e+000 -9.935635e+000 57 40 13
1.318060e+000 2.244021e+000 -1.632799e+001 53 44 14
1.318060e+000 2.244021e+000 -1.632799e+001 53 44 14
1.371134e-001 2.455545e+000 -1.022119e+001 23 19 13
3.446507e-001 1.371797e+000 -5.769907e+000 216 182 134
2.819076e-001 1.456596e+000 -5.681937e+000 200 176 149
2.175754e+001 -2.766919e+000 -3.701053e+001 253 244 211
2.189578e+001 -2.626765e+000 -3.794112e+001 192 154 115
2.189578e+001 -2.626765e+000 -3.794112e+001 192 154 115
4.744747e-001 6.045165e-001 -6.324278e+000 156 142 113
3.744665e+000 7.093785e-001 -1.415795e+001 253 113 118
3.744665e+000 7.093785e-001 -1.415795e+001 253 113 118
1.327698e+001 2.536970e+000 -3.658033e+001 195 179 166
2.221089e-001 1.131423e+000 -9.990689e+000 74 63 21
1.878843e+000 1.650486e+000 -1.611633e+001 73 61 52
4.112926e+000 1.746246e+000 -1.639682e+001 238 242 243
1.321690e+001 3.357995e+000 -3.564864e+001 234 239 234
1.422106e+001 3.465021e+000 -3.666528e+001 252 252 229
1.305378e+001 3.443695e+000 -3.633233e+001 249 250 252
3.346266e-001 1.347757e+000 -9.955781e+000 53 47 36
1.284914e+000 2.106162e+000 -1.643892e+001 126 110 69
1.370442e+000 2.189763e+000 -1.636695e+001 204 192 172
8.429112e+000 4.264618e+000 -3.086429e+001 140 106 53
4.771644e-001 1.115319e+000 -6.018277e+000 236 196 144
6.263027e-001 2.519030e+000 -1.043406e+001 163 129 86
4.714900e-001 1.251991e+000 -5.775165e+000 223 175 133
2.405638e-001 1.382612e+000 -5.813904e+000 203 169 123
2.871319e-001 1.378766e+000 -5.791073e+000 201 169 124
4.167156e-002 1.513894e+000 -5.862919e+000 120 106 79
5.104872e-001 -1.590216e-001 -6.489371e+000 116 106 85
2.200286e+001 -2.376862e+000 -3.870537e+001 97 77 68
1.093958e-001 1.087976e+000 -1.031130e+001 50 42 19
1.400004e+001 3.376320e+000 -3.573444e+001 182 175 156
1.400004e+001 3.376320e+000 -3.573444e+001 182 175 156
1.399738e+001 3.612355e+000 -3.567669e+001 196 188 165
1.399738e+001 3.612355e+000 -3.567669e+001 196 188 165
1.188658e+000 2.110502e+000 -1.641598e+001 203 190 178
1.186470e+000 2.173270e+000 -1.638437e+001 131 115 75
1.186470e+000 2.173270e+000 -1.638437e+001 131 115 75
3.102876e+000 1.523213e+000 -8.753547e+000 49 29 16
5.420802e-001 1.090043e+000 -6.008603e+000 129 96 63
4.782699e-001 1.089487e+000 -5.998352e+000 129 92 50
7.966674e-002 2.354418e+000 -1.026193e+001 31 21 19
1.612877e-001 2.437330e+000 -1.026227e+001 186 173 152
1.612877e-001 2.437330e+000 -1.026227e+001 186 173 152
5.349493e-001 1.457985e+000 -5.653295e+000 131 115 90
3.684309e-001 1.471419e+000 -5.657698e+000 95 82 63
2.541609e-001 1.478807e+000 -5.688841e+000 101 89 63
5.421246e-001 1.246375e-002 -6.440506e+000 115 108 79
2.203137e+001 -1.757398e+000 -3.861398e+001 84 65 56
3.229800e-001 7.155330e-001 -6.179520e+000 66 51 30
1.403542e+001 1.093669e+000 -3.728717e+001 198 197 193
1.281975e-001 2.348599e+000 -1.027289e+001 184 167 149
1.316629e-001 2.391035e+000 -1.025768e+001 157 150 147
1.316629e-001 2.391035e+000 -1.025768e+001 157 150 147
4.503892e-001 1.455352e+000 -5.652762e+000 121 109 86
4.433630e-001 1.458824e+000 -5.651264e+000 157 144 125
3.174700e-001 1.460290e+000 -5.672179e+000 103 88 64
4.498576e-001 1.469431e+000 -5.648114e+000 97 84 66
5.339572e-001 -1.298000e-001 -6.478337e+000 16 9 4
5.262429e-001 4.150245e-002 -6.441132e+000 115 104 81
3.215476e-001 2.332332e-001 -6.286248e+000 115 102 85
5.845252e-001 5.058167e-001 -6.307811e+000 124 117 96
2.223477e+001 -2.948608e+000 -3.929979e+001 70 62 56
2.196353e+001 -1.995958e+000 -3.852568e+001 108 91 66
2.229172e+001 -1.883719e+000 -3.918806e+001 223 207 197
1.319999e-001 1.073019e+000 -1.031037e+001 114 111 94
1.319999e-001 1.073019e+000 -1.031037e+001 114 111 94
1.323118e+001 2.659799e+000 -3.614061e+001 240 234 207
1.923054e+000 1.709657e+000 -1.622334e+001 244 236 224
1.404815e+001 3.244726e+000 -3.605381e+001 253 242 215
1.134195e+001 3.639839e+000 -3.765410e+001 248 252 251
1.275260e+001 3.783716e+000 -3.650495e+001 204 212 217
3.185409e-001 1.393530e+000 -9.950584e+000 169 143 80
4.949342e-001 1.026163e+000 -6.007035e+000 230 206 162
3.386668e-001 1.059995e+000 -6.124840e+000 123 113 101
5.335962e-001 1.059886e+000 -5.989811e+000 181 163 141
2.724382e+000 2.140226e+000 -1.244158e+001 89 51 18
2.996282e+000 2.382890e+000 -1.202957e+001 188 123 55
4.614732e-001 1.256634e+000 -5.979664e+000 52 11 0
1.003126e-001 2.397522e+000 -1.025699e+001 142 133 126
4.442980e-001 1.000092e+000 -4.791413e+000 180 166 140
1.463516e-001 1.489504e+000 -5.866566e+000 197 164 119
7.764384e-002 1.488145e+000 -5.823751e+000 234 213 182
5.087154e-001 1.457619e+000 -5.650445e+000 126 112 86
1.365800e-001 1.486430e+000 -5.762492e+000 116 98 74
1.363862e-001 1.486068e+000 -5.762146e+000 116 98 74
2.154272e-001 1.473850e+000 -5.708652e+000 156 143 126
4.239929e-001 5.365196e-001 -6.324953e+000 120 111 91
1.402444e+001 1.843795e+000 -3.369048e+001 196 192 186
7.203981e-002 1.065174e+000 -1.034142e+001 58 48 39
1.388536e+001 3.207905e+000 -3.552270e+001 240 229 202
3.982168e-001 9.194055e-001 -6.253314e+000 135 131 113
1.009395e+001 3.568933e+000 -3.821426e+001 249 250 250
1.354157e+001 3.435634e+000 -3.595939e+001 204 211 205
1.131639e+001 3.727663e+000 -3.766685e+001 200 205 208
1.313654e+001 3.764626e+000 -3.644404e+001 196 207 213
3.149668e+000 1.431270e+000 -1.053480e+001 51 34 9
3.035741e+000 1.303708e+000 -8.657014e+000 151 120 77
1.413822e+000 2.248952e+000 -1.629050e+001 136 118 94
2.202053e-001 1.119398e+000 -6.327548e+000 70 46 18
2.825323e+000 2.325488e+000 -1.201201e+001 245 190 134
3.801775e+000 2.242922e+000 -9.678360e+000 104 88 54
4.511226e-001 1.264988e+000 -5.981810e+000 255 228 175
3.392750e-001 1.266653e+000 -5.793855e+000 255 238 197
3.316665e-001 1.267078e+000 -5.795911e+000 255 228 193
-8.690835e-002 1.671130e+000 -6.521337e+000 114 98 73
4.856776e-001 1.456060e+000 -5.648465e+000 112 100 82
1.677998e-001 1.472815e+000 -5.739062e+000 117 97 72
4.930162e-001 1.459110e+000 -5.651592e+000 105 93 69
3.442803e-001 1.459615e+000 -5.665246e+000 103 90 69
3.444104e-001 1.459565e+000 -5.665243e+000 103 90 69
-1.149017e-001 1.375747e+000 -5.367312e+000 219 199 163
2.909342e-001 2.284016e-001 -6.298475e+000 68 50 28
2.212253e+001 -2.950279e+000 -3.718054e+001 176 160 133
2.183994e+001 -1.971744e+000 -3.724103e+001 251 233 182
4.763859e-001 6.009278e-001 -6.324929e+000 179 165 137
5.117145e-001 6.107662e-001 -6.308595e+000 158 143 117
5.150232e-001 6.368473e-001 -6.302799e+000 19 11 0
1.309058e+001 2.454484e+000 -3.675145e+001 208 207 187
1.260868e+001 2.496071e+000 -3.708503e+001 212 208 196
1.124253e+001 2.726386e+000 -3.806258e+001 204 190 167
1.207647e+001 2.792620e+000 -3.721810e+001 218 214 190
1.207647e+001 2.792620e+000 -3.721810e+001 218 214 190
-2.498430e-002 1.186832e+000 -9.530839e+000 192 185 161
1.302097e+001 3.351781e+000 -3.630084e+001 255 254 255
4.607684e-001 9.482521e-001 -6.250904e+000 91 81 69
4.702380e-001 9.508693e-001 -6.254371e+000 152 141 115
3.203747e-001 1.350836e+000 -9.996608e+000 54 45 41
1.187135e+001 4.306799e+000 -3.738404e+001 255 239 219
1.028649e+001 4.313080e+000 -3.060187e+001 248 230 180
1.661443e-001 1.475266e+000 -5.738920e+000 177 159 135
2.233903e-001 1.467351e+000 -5.705422e+000 191 176 153
3.872458e-001 1.459767e+000 -5.656329e+000 204 190 163
2.759543e-001 1.463638e+000 -5.682614e+000 128 111 83
5.318827e-001 -5.077379e-002 -6.454913e+000 7 6 1
1.445558e+001 -4.011819e+000 -1.855246e+001 132 128 125
6.790623e-002 1.504952e+000 -5.831658e+000 117 110 84
1.386924e+001 -4.172966e+000 -1.844616e+001 249 238 158
1.421595e+001 -3.774017e+000 -1.966063e+001 91 64 44
1.441755e+001 -3.479558e+000 -1.845896e+001 80 70 57
1.460192e+001 -3.526402e+000 -1.863031e+001 80 70 57
1.460192e+001 -3.526402e+000 -1.863031e+001 80 70 57
1.418399e+001 -3.128324e+000 -1.815792e+001 229 221 191
1.417844e+001 -3.124604e+000 -1.815196e+001 229 221 191
1.425157e+001 -3.230797e+000 -1.957397e+001 93 70 55
2.524364e-001 1.329926e+000 -6.107369e+000 179 138 84
1.200956e-001 1.404653e+000 -5.919539e+000 192 164 117
1.200956e-001 1.404653e+000 -5.919539e+000 192 164 117
6.236320e-001 1.438950e-001 -6.392954e+000 14 12 8
1.414579e+001 -4.395285e+000 -1.940547e+001 255 241 215
1.417756e+001 -4.373224e+000 -1.968039e+001 135 130 129
1.413169e+001 -3.948358e+000 -1.862908e+001 254 239 158
4.643389e-001 1.079902e+000 -6.010249e+000 251 225 180
2.425657e+000 2.305325e+000 -1.223178e+001 237 197 135
2.416725e+000 2.424801e+000 -1.223659e+001 254 208 144
2.357287e+000 2.475414e+000 -1.225291e+001 69 38 18
2.357287e+000 2.475414e+000 -1.225291e+001 69 38 18
2.357287e+000 2.475414e+000 -1.225291e+001 69 38 18
2.349301e+000 2.705548e+000 -1.194602e+001 235 216 184
8.919472e-002 1.496579e+000 -5.806052e+000 140 128 106
6.147802e-001 -9.193852e-002 -6.433812e+000 106 96 71
1.432040e+001 -2.729917e+000 -1.806742e+001 125 116 96
2.205068e+000 2.287346e+000 -1.242346e+001 248 189 121
1.258770e-001 1.417986e+000 -5.907727e+000 248 216 165
1.183299e-002 1.514051e+000 -5.914310e+000 97 85 69
5.630887e-001 -5.114209e-002 -6.451026e+000 116 104 74
2.377560e+000 2.319093e+000 -1.252050e+001 33 8 7
2.183143e+000 2.368348e+000 -1.237716e+001 224 179 115
2.361775e+000 2.413613e+000 -1.231230e+001 229 192 127
2.364980e+000 2.461187e+000 -1.227162e+001 59 34 12
2.163561e+000 2.533349e+000 -1.225909e+001 25 9 5
2.226474e+000 2.608672e+000 -1.220549e+001 195 144 68
2.260478e+000 2.596141e+000 -1.212597e+001 204 164 102
2.293806e+000 2.656422e+000 -1.221511e+001 84 39 18
8.223646e-002 1.487629e+000 -5.966471e+000 190 161 117
8.259313e-002 1.487711e+000 -5.966854e+000 190 161 117
2.906003e-001 1.463956e+000 -5.679409e+000 108 100 79
8.224714e-002 1.487207e+000 -5.815591e+000 216 200 165
1.429024e+001 -4.312981e+000 -1.832141e+001 167 158 151
1.428926e+001 -4.313065e+000 -1.832058e+001 167 158 151
1.435843e+001 -4.426990e+000 -1.941958e+001 101 94 79
1.448865e+001 -4.470298e+000 -1.954941e+001 101 94 79
1.446260e+001 -4.332135e+000 -2.010627e+001 246 226 202
1.437968e+001 -4.091003e+000 -1.835158e+001 133 118 95
1.440073e+001 -3.826527e+000 -1.999655e+001 68 46 44
1.429955e+001 -3.518831e+000 -1.817353e+001 146 130 107
1.423536e+001 -3.498154e+000 -1.811425e+001 146 130 107
1.429828e+001 -3.242359e+000 -1.817298e+001 243 229 202
1.407363e+001 -3.199471e+000 -1.824989e+001 133 115 93
1.407363e+001 -3.199471e+000 -1.824989e+001 133 115 93
2.139045e+000 2.321702e+000 -1.234764e+001 81 34 2
2.302270e+000 2.393816e+000 -1.239659e+001 156 92 30
2.302270e+000 2.393816e+000 -1.239659e+001 156 92 30
2.256973e+000 2.418069e+000 -1.237228e+001 238 205 147
2.541307e+000 2.445467e+000 -1.228312e+001 195 133 60
2.541307e+000 2.445467e+000 -1.228312e+001 195 133 60
2.061708e+000 2.449330e+000 -1.218021e+001 234 198 134
2.272088e+000 2.512189e+000 -1.221601e+001 98 52 8
2.415831e-001 1.223321e+000 -6.159925e+000 191 158 112
2.283869e+000 2.614517e+000 -1.209571e+001 101 64 38
2.411865e+000 2.648635e+000 -1.220499e+001 227 180 113
2.258503e+000 2.678142e+000 -1.219988e+001 191 145 87
2.245291e+000 2.707033e+000 -1.215119e+001 89 44 21
1.230388e-001 1.495342e+000 -5.893016e+000 197 166 119
3.302176e-002 1.504036e+000 -5.876843e+000 106 90 65
1.240390e-001 1.483014e+000 -5.774678e+000 134 119 88
4.190063e-001 -3.783579e-002 -6.616352e+000 75 73 61
5.759958e-001 2.076849e-001 -6.376619e+000 136 129 103
1.459767e+001 -4.356078e+000 -1.964292e+001 126 113 101
1.438783e+001 -3.921055e+000 -2.006662e+001 236 222 199
1.450786e+001 -3.767072e+000 -1.992800e+001 61 39 34
1.408117e+001 -2.194196e+000 -1.797910e+001 248 239 208
1.439213e+001 -1.693987e+000 -1.813872e+001 251 251 225
1.444168e+001 -1.594431e+000 -1.939694e+001 55 41 35
1.412054e+001 -1.047028e+000 -1.784719e+001 148 127 94
2.364840e+000 2.292957e+000 -1.239963e+001 184 147 95
2.359647e+000 2.507323e+000 -1.228102e+001 36 10 7
2.475806e+000 2.518814e+000 -1.218569e+001 254 223 165
2.370297e+000 2.568141e+000 -1.221784e+001 104 55 12
2.370297e+000 2.568141e+000 -1.221784e+001 104 55 12
2.489487e+000 2.645271e+000 -1.212835e+001 185 137 69
1.795201e+000 2.560431e+000 -1.071907e+001 214 199 168
1.795201e+000 2.560431e+000 -1.071907e+001 214 199 168
1.246049e-001 1.398027e+000 -5.912670e+000 243 210 165
1.453864e-001 1.396747e+000 -5.886569e+000 171 137 93
1.403780e+001 -4.203537e+000 -1.848011e+001 149 121 81
2.431313e+000 2.277752e+000 -1.244807e+001 229 192 140
2.426582e+000 2.403275e+000 -1.229728e+001 227 184 111
2.165162e+000 2.407838e+000 -1.230898e+001 87 51 7
2.119457e+000 2.438192e+000 -1.225923e+001 117 67 11
2.250612e+000 2.449853e+000 -1.215903e+001 221 168 110
2.303915e+000 2.592909e+000 -1.214267e+001 223 189 144
2.303915e+000 2.592909e+000 -1.214267e+001 223 189 144
1.811427e+000 2.632048e+000 -1.226159e+001 246 232 202
2.379288e+000 2.728038e+000 -1.188697e+001 154 131 101
7.637122e-002 1.496600e+000 -5.822160e+000 174 162 138
5.542704e-001 3.176436e-001 -6.362898e+000 91 82 71
1.438629e+001 -2.193325e+000 -1.979431e+001 123 98 74
6.277944e-001 7.651512e-001 -6.233387e+000 143 129 100
3.010841e+000 1.176385e+000 -1.041166e+001 72 68 52
2.159494e+000 2.306284e+000 -1.233790e+001 240 196 149
2.363794e+000 2.346139e+000 -1.237395e+001 212 166 108
2.259159e+000 2.374502e+000 -1.240040e+001 222 190 152
2.341924e+000 2.437107e+000 -1.240020e+001 247 199 137
2.360193e+000 2.600055e+000 -1.225244e+001 60 14 0
2.116054e+000 2.617511e+000 -1.219362e+001 248 208 137
2.377444e+000 2.633760e+000 -1.220086e+001 58 12 0
2.317110e+000 2.645460e+000 -1.213709e+001 248 199 146
1.798672e+000 2.676272e+000 -1.224832e+001 245 230 197
2.295437e+000 2.753187e+000 -1.196900e+001 237 193 133
4.798342e-001 1.255434e+000 -5.771231e+000 248 230 182
1.030867e-001 1.482213e+000 -5.794750e+000 190 169 138
4.311082e-002 1.495435e+000 -5.853454e+000 146 130 104
1.437880e+001 -4.316394e+000 -2.014262e+001 63 52 40
4.723110e-001 5.295274e-001 -6.343789e+000 152 138 106
5.213867e-001 5.872882e-001 -6.310086e+000 94 83 53
2.350664e+000 2.536210e+000 -1.219463e+001 254 229 168
2.167913e+000 2.562947e+000 -1.226115e+001 233 195 153
2.381746e+000 2.620290e+000 -1.221836e+001 251 203 149
2.482793e+000 2.636053e+000 -1.216868e+001 255 213 138
1.539578e+000 2.727132e+000 -1.333100e+001 110 83 54
1.568095e+000 2.688774e+000 -1.334747e+001 32 23 1
1.395687e+000 2.760120e+000 -1.325437e+001 74 52 6
2.412991e+000 2.564088e+000 -1.225561e+001 250 220 150
7.898646e-001 1.281099e+000 -6.304246e+000 115 103 84
5.454668e-001 3.327712e-001 -5.903953e+000 159 179 197
-1.066184e+000 9.766975e-001 -8.725321e+000 188 153 87
8.017113e-001 1.284463e+000 -6.307478e+000 247 218 174
-1.865569e-001 1.607746e+000 -6.369227e+000 109 106 101
5.197938e-001 1.539943e-001 -6.648506e+000 139 131 108
4.779628e-001 7.781986e-001 -6.287254e+000 151 138 112
-1.090558e+000 9.577832e-001 -8.714528e+000 152 125 75
5.100063e-001 1.039880e+000 -6.011346e+000 231 215 177
4.861303e-001 1.456483e+000 -5.649392e+000 109 94 75
8.523342e-002 1.388173e+000 -5.415481e+000 68 60 49
3.464492e-001 4.469384e-001 -6.254598e+000 115 98 81
4.006803e-001 4.479220e-001 -6.301175e+000 117 105 81
4.262761e-001 6.146472e-001 -6.291337e+000 102 90 66
4.360507e-001 7.808167e-001 -6.265240e+000 94 86 66
-1.331785e+000 1.741345e+000 -9.205198e+000 77 56 17
8.668953e-001 1.556806e+000 -6.270259e+000 215 193 151
4.762937e-001 1.472881e+000 -5.644657e+000 159 147 121
2.170235e+001 -2.753840e+000 -3.692545e+001 253 244 211
2.177758e+001 -1.880829e+000 -3.726201e+001 254 237 165
2.174711e+001 -1.879533e+000 -3.722927e+001 254 237 165
4.982891e-001 1.071927e+000 -6.003111e+000 56 35 22
2.203374e+001 -1.571585e+000 -3.718513e+001 255 241 214
1.341938e+000 2.125109e+000 -1.641318e+001 198 186 174
3.137022e+000 2.341079e+000 -1.206241e+001 247 199 137
4.992363e-001 1.802925e-001 -6.408732e+000 131 120 97
2.216151e+001 -3.042109e+000 -3.841529e+001 120 106 97
2.997518e+000 2.383112e+000 -1.203452e+001 188 123 55
2.934916e+000 2.390474e+000 -1.201662e+001 193 125 62
2.934916e+000 2.390474e+000 -1.201662e+001 193 125 62
5.032154e-001 1.463536e+000 -5.724573e+000 148 119 73
4.990613e-001 6.858225e-001 -6.297163e+000 95 79 54
1.440614e+001 2.384566e+000 -3.591712e+001 253 251 235
2.387883e-001 1.073542e+000 -6.298663e+000 198 175 150
5.153631e-001 1.038144e+000 -6.008654e+000 85 65 39
3.128507e+000 2.235920e+000 -1.222995e+001 253 215 169
2.559250e-001 1.465127e+000 -5.689087e+000 100 82 58
5.185620e-001 1.115734e-001 -6.416455e+000 133 120 95
4.965625e-001 8.042614e-001 -6.272043e+000 147 131 106
3.235990e+000 2.257690e+000 -1.202130e+001 255 192 127
3.122198e+000 2.290592e+000 -1.203232e+001 253 206 147
3.209735e+000 2.355826e+000 -1.196144e+001 164 104 42
6.384145e-001 1.210336e+000 -6.066291e+000 196 161 128
4.152703e-001 5.435312e-001 -6.543267e+000 72 59 40
2.714174e-001 1.360557e+000 -5.845873e+000 247 225 172
4.043767e-001 5.450772e-001 -6.532018e+000 67 54 35
6.073224e-001 -1.052365e-001 -6.440816e+000 111 99 71
5.311626e-001 -4.997208e-002 -6.453881e+000 7 6 1
3.137992e+000 2.507717e+000 -1.207585e+001 156 110 44
6.125288e-001 -5.095694e-002 -6.440581e+000 117 99 63
6.224464e-001 2.286140e-001 -6.358802e+000 130 122 86
2.413814e-001 1.121874e+000 -6.315257e+000 50 24 6
2.805967e+000 2.485191e+000 -1.211742e+001 217 165 98
2.807602e+000 2.631139e+000 -1.199739e+001 247 207 138
1.998441e-001 1.475756e+000 -5.719077e+000 82 68 55
4.150101e-001 1.997659e-001 -6.566604e+000 98 82 61
2.772617e+000 2.404269e+000 -1.215939e+001 2 4 1
2.993972e+000 2.591405e+000 -1.205167e+001 44 23 17
2.973345e+000 2.659955e+000 -1.206867e+001 242 202 138
3.133682e+000 2.667266e+000 -1.202814e+001 41 16 8
3.223887e-002 1.536112e+000 -6.142661e+000 221 196 155
4.195428e+000 1.798187e+000 -1.292322e+001 110 89 72
4.195428e+000 1.798187e+000 -1.292322e+001 110 89 72
2.876410e-001 1.116490e+000 -6.271808e+000 53 43 23
3.010946e+000 2.636291e+000 -1.195263e+001 230 177 106
2.790757e+000 2.708381e+000 -1.192708e+001 213 159 87
4.176389e-001 -1.088009e-001 -6.627913e+000 90 83 56
3.591103e-001 3.345433e-001 -6.359403e+000 120 108 81
4.145739e-001 4.881213e-001 -6.469611e+000 91 79 60
3.940739e-001 9.118620e-001 -6.258730e+000 24 24 24
4.613768e-001 1.048725e+000 -6.040340e+000 167 148 115
2.555223e-001 1.115854e+000 -6.288867e+000 226 204 156
2.720407e+000 2.218045e+000 -1.217421e+001 168 103 43
2.469920e-001 1.148389e+000 -6.166607e+000 228 195 149
2.874001e+000 2.395636e+000 -1.219214e+001 62 27 14
2.874001e+000 2.395636e+000 -1.219214e+001 62 27 14
3.126074e+000 2.391358e+000 -1.212980e+001 213 152 93
2.722937e+000 2.657941e+000 -1.201042e+001 223 163 103
3.128074e+000 2.686048e+000 -1.202517e+001 22 6 3
3.128074e+000 2.686048e+000 -1.202517e+001 22 6 3
2.752311e+000 2.722794e+000 -1.208870e+001 57 24 5
5.361279e+000 2.015572e+000 -8.307938e+000 108 99 90
4.753334e-001 1.258921e+000 -5.793537e+000 180 138 95
5.448180e-001 -1.230628e-001 -6.451144e+000 27 22 12
6.128823e-001 -1.418414e-001 -6.446861e+000 89 91 75
4.222017e-001 -8.361682e-002 -6.607782e+000 87 80 68
4.208431e-001 -8.318423e-002 -6.606670e+000 87 80 68
5.107194e+000 8.546223e-001 -8.707335e+000 141 119 86
2.554905e-001 1.103283e+000 -6.292032e+000 209 186 152
2.633510e-001 1.118506e+000 -6.280039e+000 67 53 17
4.793134e-001 1.089533e+000 -5.995754e+000 140 105 67
2.390131e-001 1.148159e+000 -6.198478e+000 63 39 16
3.188992e+000 2.261007e+000 -1.219935e+001 214 158 91
3.166747e+000 2.438718e+000 -1.211654e+001 41 8 4
2.931361e+000 2.505812e+000 -1.206984e+001 22 6 4
2.724626e+000 2.514684e+000 -1.212341e+001 30 7 9
2.982946e+000 2.637802e+000 -1.212690e+001 202 155 79
2.686412e+000 2.611009e+000 -1.206881e+001 236 187 123
2.997784e+000 2.618108e+000 -1.201752e+001 33 6 5
2.749525e+000 2.624017e+000 -1.203690e+001 59 26 7
2.749525e+000 2.624017e+000 -1.203690e+001 59 26 7
2.859515e+000 2.724767e+000 -1.189362e+001 175 127 73
5.371648e+000 2.002480e+000 -8.276989e+000 15 11 13
2.963303e+000 2.548844e+000 -1.062734e+001 126 109 83
2.963303e+000 2.548844e+000 -1.062734e+001 126 109 83
2.619142e+000 2.563803e+000 -1.067344e+001 172 156 131
3.636290e-001 1.469579e+000 -6.494551e+000 109 86 60
1.583961e-001 1.389933e+000 -5.876562e+000 251 219 170
3.408014e-001 1.458211e+000 -5.664910e+000 98 88 63
-1.864661e-002 1.526059e+000 -5.979524e+000 107 95 68
7.072931e-002 1.488938e+000 -5.832274e+000 204 188 152
6.914832e-002 1.494760e+000 -5.830720e+000 121 111 83
4.115043e-001 -1.064078e-001 -6.608995e+000 75 69 50
6.253375e-001 1.438406e-001 -6.377320e+000 25 24 23
5.080830e-001 4.558420e-001 -6.336210e+000 133 122 92
3.130471e+000 2.337449e+000 -1.223961e+001 227 183 120
3.148138e+000 2.359885e+000 -1.217126e+001 76 31 6
2.733302e+000 2.468550e+000 -1.208408e+001 52 22 9
2.764291e+000 2.481097e+000 -1.200605e+001 255 211 150
3.069480e+000 2.514614e+000 -1.197097e+001 242 195 128
2.953118e+000 2.574650e+000 -1.208353e+001 19 5 0
2.638991e+000 2.614077e+000 -1.209632e+001 248 192 125
2.900249e+000 2.630620e+000 -1.204341e+001 89 41 19
2.679821e+000 2.724417e+000 -1.202947e+001 229 178 111
2.530073e+000 2.546240e+000 -1.059880e+001 219 203 177
2.552545e+000 2.566417e+000 -1.056752e+001 231 211 187
3.580494e-001 1.322406e+000 -5.993589e+000 252 218 170
2.643412e-001 1.483453e+000 -6.297264e+000 221 195 146
2.647094e-001 1.498471e+000 -6.297234e+000 205 181 135
1.391483e-001 1.392796e+000 -5.890572e+000 241 209 160
4.928945e-001 1.466033e+000 -5.648848e+000 171 161 134
3.814506e-001 1.458727e+000 -5.656890e+000 186 172 143
-3.627945e-002 1.551178e+000 -6.075841e+000 80 68 51
4.690022e-001 1.472467e+000 -5.649091e+000 106 99 73
4.224603e-001 1.682658e-001 -6.554096e+000 85 82 66
4.067184e-001 7.497927e-001 -6.463578e+000 95 86 69
4.199735e+000 1.868267e+000 -1.276651e+001 84 66 48
4.148567e+000 1.957619e+000 -1.293430e+001 64 49 40
3.135016e+000 2.240464e+000 -1.238545e+001 77 38 1
3.135016e+000 2.240464e+000 -1.238545e+001 77 38 1
3.137343e+000 2.393088e+000 -1.199933e+001 191 143 97
2.892507e+000 2.411675e+000 -1.207963e+001 193 131 57
3.093375e+000 2.483261e+000 -1.204423e+001 251 203 145
3.026462e+000 2.482684e+000 -1.193307e+001 164 112 51
3.026462e+000 2.482684e+000 -1.193307e+001 164 112 51
2.658276e+000 2.629807e+000 -1.208161e+001 178 119 51
5.366003e+000 1.963341e+000 -8.293459e+000 33 21 26
2.498306e+000 2.756882e+000 -1.191932e+001 150 121 93
2.931874e+000 2.558233e+000 -1.057327e+001 193 177 151
2.138959e+000 2.547182e+000 -1.063256e+001 249 230 198
6.357413e-003 1.685651e+000 -6.609496e+000 86 69 40
8.318572e-002 1.500481e+000 -5.964462e+000 176 147 103
8.318572e-002 1.500481e+000 -5.964462e+000 176 147 103
5.539959e-001 1.472943e+000 -5.654682e+000 92 78 51
7.754185e-002 1.487742e+000 -5.822174e+000 223 207 171
1.370070e-001 1.486755e+000 -5.762668e+000 108 94 68
7.760426e-002 1.503419e+000 -5.825084e+000 112 100 74
5.496111e-001 -1.396487e-001 -6.468261e+000 12 7 2
4.057332e-001 -1.184955e-002 -6.605233e+000 84 81 66
4.927619e-001 8.283206e-001 -6.263529e+000 148 134 107
1.921541e-001 1.085075e+000 -6.320313e+000 236 213 164
2.270939e-001 1.137688e+000 -6.303848e+000 33 6 3
2.832115e+000 2.270243e+000 -1.221438e+001 244 190 133
3.096218e+000 2.337860e+000 -1.224718e+001 227 182 128
2.644232e+000 2.338904e+000 -1.213049e+001 238 179 118
3.232029e+000 2.364789e+000 -1.211576e+001 232 187 130
2.968703e+000 2.461550e+000 -1.189459e+001 255 209 154
3.005837e+000 2.555507e+000 -1.214675e+001 70 26 0
2.404179e-001 1.230657e+000 -6.185907e+000 177 145 104
3.021607e+000 2.498215e+000 -1.184721e+001 228 178 119
2.598283e+000 2.598527e+000 -1.213458e+001 196 129 56
2.753286e+000 2.683341e+000 -1.196534e+001 53 14 0
2.772973e+000 2.716623e+000 -1.189344e+001 255 210 157
4.743997e-001 1.210756e+000 -5.782143e+000 74 44 8
4.743997e-001 1.210756e+000 -5.782143e+000 74 44 8
2.347806e-001 1.331788e+000 -6.193302e+000 224 189 147
2.634342e+000 2.588891e+000 -1.059239e+001 192 172 145
3.421226e-001 1.271886e+000 -5.826278e+000 201 173 131
2.634290e-001 1.385422e+000 -6.079621e+000 247 215 167
2.040237e-001 1.467415e+000 -5.714030e+000 98 83 58
1.603420e-001 1.478148e+000 -5.744008e+000 172 158 130
1.446406e-001 1.485305e+000 -5.755935e+000 121 106 82
-6.535396e-003 1.544620e+000 -5.969297e+000 91 80 50
1.049683e-001 1.496578e+000 -5.791082e+000 168 158 133
-5.505386e-001 1.467782e+000 -5.767058e+000 46 48 45
3.010798e-001 4.756997e-001 -6.240066e+000 88 73 44
4.911642e-001 5.920986e-001 -6.315296e+000 149 136 104
4.911642e-001 5.920986e-001 -6.315296e+000 149 136 104
4.096222e-001 9.181242e-001 -6.468076e+000 81 74 59
4.551464e-001 1.045403e+000 -6.055233e+000 63 48 24
4.138472e-001 1.121946e+000 -6.367446e+000 96 87 70
3.185258e+000 2.237424e+000 -1.230760e+001 90 50 9
3.045645e+000 2.304926e+000 -1.234429e+001 46 8 0
2.571640e+000 2.512038e+000 -1.219135e+001 248 194 134
2.824424e+000 2.490516e+000 -1.204408e+001 255 204 137
3.120738e+000 2.515149e+000 -1.192321e+001 238 180 121
2.794370e+000 2.641224e+000 -1.198514e+001 255 231 164
2.660479e+000 2.757506e+000 -1.206038e+001 249 197 133
2.385191e-001 1.327734e+000 -6.169640e+000 161 128 85
2.612537e+000 2.553232e+000 -1.054625e+001 145 128 103
2.359034e-001 1.342823e+000 -6.212532e+000 131 103 64
1.935058e-001 1.387245e+000 -5.844044e+000 195 163 114
-2.002708e-002 1.529797e+000 -5.983887e+000 79 67 44
1.096913e-001 1.482309e+000 -5.792434e+000 222 201 170
6.942783e-003 1.518156e+000 -5.921394e+000 176 165 147
4.017401e-001 -2.808530e-002 -6.412853e+000 80 71 56
5.490008e-001 7.460102e-002 -6.433657e+000 150 137 113
4.017945e-001 3.978492e-001 -6.355202e+000 88 77 55
3.214106e-001 1.268880e-001 -6.340831e+000 28 26 27
4.729043e-001 1.464520e+000 -5.649731e+000 146 139 123
4.090158e-001 1.063736e-001 -6.406106e+000 2 1 0
5.010894e-001 1.050810e+000 -6.002212e+000 212 198 158
6.755677e-001 1.482702e+000 -5.756896e+000 200 182 157
4.766596e-001 1.235952e-001 -6.426702e+000 166 149 121
4.779090e-001 1.735490e-001 -6.420807e+000 161 144 115
4.531993e-001 8.557486e-001 -6.269147e+000 92 80 68
-1.107169e+000 1.157291e+000 -8.697392e+000 46 20 3
6.568095e-001 1.196141e+000 -6.095092e+000 182 158 122
6.970837e-001 1.387962e+000 -5.822563e+000 176 142 104
1.062566e+000 1.708184e+000 -6.602174e+000 210 179 133
5.775340e-001 3.675486e-002 -6.469316e+000 152 174 217
4.601532e-001 4.111051e-002 -6.446746e+000 87 74 57
4.348926e-001 6.005612e-001 -6.294466e+000 135 120 97
4.700678e-001 7.656431e-001 -6.290754e+000 164 153 123
1.060394e+000 2.705588e+000 -1.128410e+001 220 199 168
-3.183203e-001 1.626637e+000 -6.455795e+000 203 185 165
5.693669e-001 -1.294390e-001 -6.460707e+000 161 145 128
4.087645e-001 -6.293510e-002 -6.402569e+000 7 4 5
5.154504e-001 3.770933e-002 -6.441418e+000 152 136 110
4.004920e-001 2.013733e-001 -6.353206e+000 85 73 51
5.079735e-001 3.419155e-001 -6.367187e+000 168 154 128
-1.659339e+000 4.217777e-001 -9.141706e+000 198 204 227
4.715174e-001 6.423127e-001 -6.318518e+000 179 165 136
-1.678839e+000 4.776648e-001 -9.129257e+000 86 69 16
4.697475e-001 7.894019e-001 -6.288073e+000 187 176 144
-1.179621e+000 1.176589e+000 -8.764877e+000 176 132 65
6.483963e-001 1.142465e+000 -6.416425e+000 21 14 6
5.843728e-001 1.114486e+000 -6.046279e+000 108 82 49
6.451958e-001 1.139705e+000 -6.090056e+000 138 116 92
3.106680e-001 1.373393e+000 -5.777846e+000 230 198 151
7.642270e-001 1.545571e+000 -6.237685e+000 95 81 70
8.894282e-001 1.507334e+000 -5.883906e+000 56 46 36
4.856058e-001 -1.499134e-001 -6.498503e+000 17 12 8
4.677619e-001 -1.413016e-001 -6.469239e+000 15 11 8
5.168633e-001 5.654737e-001 -6.326432e+000 45 36 29
4.482994e-001 6.212085e-001 -6.309830e+000 119 105 79
4.482994e-001 6.212085e-001 -6.309830e+000 119 105 79
-1.686175e+000 4.320242e-001 -9.128304e+000 97 81 35
4.608919e-001 7.807956e-001 -6.284374e+000 75 62 38
4.517814e-001 8.329778e-001 -6.261456e+000 77 64 47
4.658933e-001 9.541700e-001 -6.251396e+000 13 10 1
5.565156e-001 2.306522e+000 -1.370619e+001 135 111 79
4.733689e-001 1.081453e+000 -5.998274e+000 253 238 205
5.561747e-001 1.091639e+000 -6.018356e+000 137 104 70
3.747331e-001 1.092998e+000 -6.020516e+000 165 132 91
6.341750e-001 1.167973e+000 -6.072983e+000 233 204 169
1.448593e+000 2.730727e+000 -1.323632e+001 138 107 56
6.438935e-001 1.204223e+000 -6.069487e+000 149 124 94
7.598198e-001 1.448023e+000 -6.258160e+000 118 98 74
7.675119e-001 1.456192e+000 -6.259973e+000 249 215 167
7.590378e-001 1.460457e+000 -6.255724e+000 113 96 71
7.661663e-001 1.473727e+000 -6.262359e+000 239 210 162
7.598277e-001 1.476180e+000 -6.249616e+000 111 95 71
8.560163e-001 1.555371e+000 -6.265257e+000 118 100 80
6.980587e-001 1.471084e+000 -5.715246e+000 88 75 60
4.668353e-001 -9.991167e-002 -6.474347e+000 86 75 55
5.410514e-001 1.623175e-002 -6.427144e+000 135 127 108
4.162179e-001 5.996625e-002 -6.403489e+000 62 49 32
4.577067e-001 9.076461e-002 -6.426152e+000 124 112 90
4.722036e-001 1.375241e-001 -6.432157e+000 172 156 128
3.932349e-001 4.377816e-001 -6.297939e+000 80 67 47
4.138273e-001 4.750434e-001 -6.307450e+000 118 110 90
-1.645131e+000 4.410282e-001 -9.164226e+000 100 86 32
4.449288e-001 8.013330e-001 -6.275872e+000 59 51 38
4.710930e-001 8.334373e-001 -6.275861e+000 170 155 126
-1.004308e+000 1.018906e+000 -8.701173e+000 48 26 2
-1.797738e+000 1.233996e+000 -8.692853e+000 220 188 137
-1.797738e+000 1.233996e+000 -8.692853e+000 220 188 137
4.723946e-001 1.025830e+000 -6.004545e+000 228 211 168
1.329202e+000 2.634277e+000 -1.341023e+001 55 25 2
1.392279e+000 2.656404e+000 -1.340143e+001 66 31 5
1.424813e+000 2.722054e+000 -1.331627e+001 64 43 4
6.362734e-001 1.199615e+000 -6.070146e+000 225 193 155
7.674903e-001 1.388931e+000 -6.273315e+000 238 213 171
6.515897e-001 1.337639e+000 -5.802638e+000 205 173 134
4.674022e-001 -1.623441e-001 -6.491614e+000 66 58 46
4.651238e-001 -7.297087e-002 -6.468309e+000 65 54 30
4.559330e-001 1.444023e-001 -6.408142e+000 37 24 8
4.647158e-001 4.887267e-001 -6.350347e+000 95 79 54
4.370851e-001 5.129170e-001 -6.323763e+000 80 68 42
-1.636351e+000 4.625111e-001 -9.160628e+000 203 177 116
3.492762e-001 6.662483e-001 -6.213469e+000 66 55 37
3.376696e-001 6.892903e-001 -6.197840e+000 125 109 86
3.376696e-001 6.892903e-001 -6.197840e+000 125 109 86
3.198777e-001 7.944664e-001 -6.161587e+000 77 60 42
-1.102636e+000 9.143822e-001 -8.792685e+000 173 151 91
-1.004246e+000 1.000730e+000 -8.721080e+000 120 101 49
-1.111684e+000 1.013350e+000 -8.762129e+000 184 143 87
-1.200196e+000 1.026107e+000 -8.805214e+000 207 168 116
-1.200196e+000 1.026107e+000 -8.805214e+000 207 168 116
-1.392284e+000 1.052108e+000 -8.767803e+000 205 175 103
-1.798131e+000 1.216364e+000 -8.697764e+000 52 25 0
4.602615e-001 9.932881e-001 -6.003839e+000 199 175 146
4.707247e-001 1.030970e+000 -5.994260e+000 90 68 38
5.577277e-001 1.110971e+000 -6.031263e+000 117 82 54
1.447752e+000 2.613026e+000 -1.320265e+001 79 57 11
-2.678199e+000 2.489457e+000 -1.044569e+001 28 15 6
1.009317e+000 2.685596e+000 -1.119578e+001 213 193 158
-1.959593e+000 2.357770e+000 -9.889835e+000 237 204 171
-2.178666e+000 2.538623e+000 -1.052775e+001 36 19 6
-4.265382e-001 1.637790e+000 -6.517985e+000 185 186 169
1.056525e+000 1.675153e+000 -6.632337e+000 207 200 179
4.368262e-001 -2.253281e-002 -6.440293e+000 114 102 86
4.676662e-001 3.151707e-002 -6.449182e+000 77 71 45
4.239105e-001 7.383701e-002 -6.408508e+000 123 115 94
3.027234e-001 2.088996e-001 -6.280229e+000 176 162 141
4.710328e-001 5.438666e-001 -6.335823e+000 164 149 120
4.214132e-001 5.919806e-001 -6.290198e+000 69 57 33
4.234677e-001 6.108690e-001 -6.286343e+000 81 67 42
-1.488227e+000 3.903261e-001 -9.356628e+000 89 95 85
3.564179e-001 6.878105e-001 -6.213946e+000 82 69 52
3.272215e-001 7.487845e-001 -6.173779e+000 121 105 89
3.464951e-001 7.611429e-001 -6.192571e+000 66 53 34
3.257273e-001 7.935115e-001 -6.167010e+000 120 104 85
5.269364e-002 1.015943e+000 -1.026434e+001 42 32 23
5.391040e-001 1.018376e+000 -6.211645e+000 152 137 118
5.353565e-001 1.036315e+000 -5.999155e+000 93 75 53
1.870778e-001 1.092138e+000 -6.332790e+000 81 61 32
1.493764e+000 2.749421e+000 -1.322635e+001 120 102 75
6.540515e-001 1.222115e+000 -5.833797e+000 87 62 32
-2.838326e+000 2.545866e+000 -1.038192e+001 41 21 0
9.174587e-001 1.721400e+000 -6.827469e+000 108 110 117
8.557419e-001 1.497569e+000 -5.840850e+000 64 48 32
6.763303e-001 1.467235e+000 -5.697742e+000 118 108 90
4.934344e-001 1.456416e+000 -5.646019e+000 115 103 81
7.335289e-001 1.490130e+000 -5.731170e+000 92 79 60
4.387553e-001 -8.245916e-002 -6.442316e+000 114 108 94
4.269489e-001 -7.824138e-002 -6.435467e+000 53 48 29
3.644256e-001 -6.422396e-002 -6.377384e+000 74 66 45
4.629439e-001 -8.323807e-002 -6.468719e+000 122 113 90
4.219619e-001 1.257512e-001 -6.382842e+000 52 43 33
4.315852e-001 1.431461e-001 -6.394201e+000 121 109 87
4.061795e-001 2.978949e-001 -6.338807e+000 127 112 89
4.486587e-001 6.165016e-001 -6.307299e+000 126 111 90
4.639707e-001 7.102488e-001 -6.301344e+000 69 57 35
4.674329e-001 7.133066e-001 -6.301348e+000 173 159 133
4.680784e-001 7.844528e-001 -6.286453e+000 175 164 134
6.272866e-001 8.035154e-001 -6.225539e+000 168 152 127
3.145853e-001 7.987604e-001 -6.155868e+000 123 108 87
1.948358e-001 1.070567e+000 -6.335002e+000 61 43 19
6.427139e-001 1.110653e+000 -6.364264e+000 162 149 126
1.460650e+000 2.705812e+000 -1.319762e+001 82 54 13
-1.967456e+000 2.287680e+000 -9.918226e+000 170 146 131
5.729246e-001 1.209805e+000 -5.793467e+000 253 226 194
6.006092e-001 1.214808e+000 -5.803614e+000 101 77 42
6.006092e-001 1.214808e+000 -5.803614e+000 101 77 42
-2.710465e+000 2.492918e+000 -1.042602e+001 35 5 0
8.740593e-001 1.504430e+000 -5.865423e+000 144 135 118
3.910676e-001 1.463261e+000 -5.660996e+000 205 191 162
5.462243e-001 9.831068e-002 -6.415902e+000 130 115 86
5.555583e-001 -1.283624e-001 -6.460912e+000 26 16 5
4.592807e-001 1.065257e+000 -6.053893e+000 194 173 144
5.515776e-001 1.075388e-001 -6.408143e+000 117 112 87
9.500880e-002 1.411963e+000 -5.958321e+000 184 152 101
2.054731e-001 1.477468e+000 -5.817239e+000 191 158 105
5.118773e-002 1.507736e+000 -5.850715e+000 163 157 135
5.137071e-002 1.507852e+000 -5.850916e+000 163 157 135
1.403813e-001 1.486863e+000 -5.758560e+000 158 143 119
2.900440e-001 2.288182e-001 -6.296473e+000 59 44 25
4.604655e-001 1.258924e+000 -5.970462e+000 214 182 141
2.418772e-001 1.480040e+000 -5.691956e+000 69 58 40
5.393093e-001 1.321728e-002 -6.437478e+000 122 111 86
-8.092779e+000 5.559941e+000 -2.758649e+001 10 25 31
4.081739e-001 3.877700e-001 -6.323544e+000 57 49 28
1.426750e+001 -3.955836e+000 -1.839705e+001 132 128 125
1.419850e+001 -3.114543e+000 -1.799170e+001 177 161 131
1.436649e+001 -2.909494e+000 -1.829112e+001 88 74 58
1.450171e+001 -2.091279e+000 -1.789869e+001 255 241 189
1.464986e+001 -4.079681e+000 -1.836092e+001 250 232 157
1.469199e+001 -3.732775e+000 -1.846585e+001 239 226 192
1.472852e+001 -3.425810e+000 -1.752949e+001 185 147 100
1.393660e+001 -3.879334e+000 -1.844289e+001 254 239 158
1.461640e+001 -1.736676e+000 -1.787782e+001 240 223 153
1.410485e+001 -3.853290e+000 -1.948454e+001 74 55 49
1.439248e+001 -2.216395e+000 -1.800931e+001 142 127 99
1.454093e+001 -2.387615e+000 -1.785107e+001 106 75 49
1.431091e+001 -1.727408e+000 -1.779995e+001 132 122 87
3.826048e-001 9.440955e-001 -6.247974e+000 25 24 21
1.472919e+001 -4.106441e+000 -1.788074e+001 62 45 29
1.472054e+001 -3.950820e+000 -1.834945e+001 92 61 40
1.468532e+001 -3.883676e+000 -1.820981e+001 240 204 150
1.466166e+001 -3.652929e+000 -1.709047e+001 66 47 43
1.456414e+001 -3.489355e+000 -1.700863e+001 110 66 53
1.419757e+001 -3.244072e+000 -1.824892e+001 244 232 206
1.484020e+001 -3.278819e+000 -1.809213e+001 67 45 36
1.474473e+001 -3.253725e+000 -1.801209e+001 67 45 36
1.403172e+001 -3.047431e+000 -1.812848e+001 255 246 213
1.490390e+001 -2.907065e+000 -1.816771e+001 202 172 119
1.468556e+001 -2.491962e+000 -1.750540e+001 66 38 17
3.889621e-001 9.277752e-001 -6.250907e+000 25 26 20
2.875086e-002 1.501551e+000 -5.889463e+000 189 173 147
1.401944e+001 -4.245725e+000 -1.943613e+001 87 76 72
1.476560e+001 -3.974543e+000 -1.752808e+001 117 107 87
1.471468e+001 -4.013386e+000 -1.830320e+001 251 232 167
1.481667e+001 -4.046035e+000 -1.839104e+001 251 232 167
1.451231e+001 -3.800285e+000 -1.710981e+001 105 89 72
1.471643e+001 -3.910279e+000 -1.782716e+001 64 50 32
1.469568e+001 -3.815155e+000 -1.707877e+001 82 54 32
1.465718e+001 -3.511638e+000 -1.821143e+001 91 62 35
1.473773e+001 -3.289560e+000 -1.699073e+001 80 53 28
1.463828e+001 -2.002774e+000 -1.682064e+001 67 51 35
1.455615e+001 -1.727086e+000 -1.662853e+001 253 238 212
1.494503e+001 -1.711787e+000 -1.782761e+001 63 45 38
1.495785e+001 -1.481968e+000 -1.789969e+001 223 213 198
3.459417e-001 1.095689e+000 -6.034047e+000 162 133 93
3.622913e-001 1.317453e+000 -5.989484e+000 43 14 1
1.538843e-001 1.479325e+000 -5.750376e+000 162 148 119
1.451446e+001 -4.448782e+000 -1.934720e+001 81 63 55
1.451793e+001 -4.167854e+000 -1.721746e+001 205 192 146
1.453041e+001 -4.090045e+000 -1.720845e+001 210 197 152
1.436431e+001 -3.824877e+000 -2.013272e+001 120 106 102
1.436431e+001 -3.824877e+000 -2.013272e+001 120 106 102
1.438786e+001 -3.695061e+000 -1.989884e+001 126 102 91
1.431626e+001 -3.206335e+000 -1.809266e+001 166 151 124
1.431626e+001 -3.206335e+000 -1.809266e+001 166 151 124
1.477769e+001 -2.395175e+000 -2.001751e+001 121 108 99
1.397233e+001 -2.013925e+000 -1.796586e+001 159 136 89
1.451209e+001 -1.811975e+000 -1.774053e+001 100 64 32
4.583749e-001 1.055270e+000 -6.046964e+000 40 24 7
3.588292e-001 1.457706e+000 -6.503906e+000 227 194 151
1.632385e-001 1.349100e+000 -5.881557e+000 253 231 184
1.497303e+001 -4.199509e+000 -1.847056e+001 180 133 89
1.486841e+001 -3.461133e+000 -1.812825e+001 43 23 7
1.493176e+001 -1.560030e+000 -1.780440e+001 103 77 44
2.370658e-001 1.229150e+000 -6.181491e+000 177 145 104
4.710570e-001 1.208239e+000 -5.786251e+000 223 193 157
-2.607017e-002 1.548059e+000 -6.001600e+000 92 78 51
1.454250e+001 -3.476006e+000 -1.991734e+001 66 50 37
1.491247e+001 -3.001954e+000 -1.805648e+001 50 18 1
1.450980e+001 -2.867057e+000 -1.797472e+001 65 32 2
1.458251e+001 -1.858892e+000 -1.973889e+001 127 109 87
3.716515e-001 9.575915e-001 -6.244282e+000 110 106 94
6.273736e-002 1.444828e+000 -6.020860e+000 198 166 115
3.329612e-002 1.543186e+000 -6.101173e+000 165 132 91
8.416745e-002 1.499360e+000 -5.812272e+000 189 177 151
4.799056e-001 1.043551e+000 -5.995634e+000 111 85 58
7.944262e-001 1.501434e+000 -6.254500e+000 247 215 162
4.015126e-001 -5.385823e-002 -6.419179e+000 80 73 55
-1.055421e+000 3.325870e-001 -1.012586e+001 189 197 219
6.784906e-001 1.462006e+000 -5.703700e+000 207 189 165
4.926284e-001 1.464567e+000 -5.646126e+000 169 161 142
4.226377e-001 9.029870e-002 -6.404849e+000 123 115 95
4.291522e-001 4.909997e-001 -6.318599e+000 66 58 38
7.765928e-001 1.246976e+000 -6.313107e+000 163 147 131
6.145029e-001 1.258586e+000 -6.032697e+000 201 163 120
7.560462e-001 1.480050e+000 -5.753466e+000 103 88 70
5.677883e-001 1.460077e+000 -5.661717e+000 111 98 82
4.682579e-001 8.244653e-001 -6.280542e+000 159 148 120
5.070911e-001 1.086560e+000 -5.999731e+000 165 130 95
6.995019e-001 1.373806e+000 -5.827086e+000 195 162 121
4.158581e-001 6.445094e-002 -6.403504e+000 75 59 43
4.610606e-001 1.177862e-001 -6.431755e+000 80 68 44
5.088293e-001 6.395319e-001 -6.306494e+000 153 141 117
7.141352e-001 1.406313e+000 -5.829188e+000 252 223 183
7.141352e-001 1.406313e+000 -5.829188e+000 252 223 183
4.707884e-001 5.299654e-001 -6.344041e+000 175 160 131
3.163677e-001 7.818522e-001 -6.163441e+000 76 61 42
3.163677e-001 7.818522e-001 -6.163441e+000 76 61 42
4.581572e-001 9.258610e-001 -6.253468e+000 46 43 24
3.301017e-001 1.383896e+000 -9.910602e+000 193 168 104
5.368627e-001 9.910383e-001 -6.013024e+000 195 179 155
7.792663e-001 1.485493e+000 -6.258723e+000 254 222 175
6.232311e-001 1.462563e+000 -5.677285e+000 197 182 162
6.265316e-001 1.466606e+000 -5.678405e+000 111 100 79
5.499135e-001 1.473902e+000 -5.650114e+000 115 101 75
4.655985e-001 5.421470e-001 -6.339564e+000 98 82 56
4.375278e-001 6.889709e-001 -6.284614e+000 76 67 43
3.240362e-001 7.732332e-001 -6.169398e+000 130 115 96
6.659298e-001 1.210630e+000 -6.099340e+000 100 75 55
6.961313e-001 1.454148e+000 -5.805519e+000 254 226 188
5.805681e-001 1.459637e+000 -5.661095e+000 105 93 79
1.056583e+000 1.430185e+000 -5.572886e+000 109 94 71
1.393020e+001 -2.805186e+000 -1.820171e+001 251 239 160
1.412029e+001 -3.617429e+000 -1.827196e+001 246 231 199
3.025674e+000 1.557312e+000 -8.709113e+000 132 102 41
1.433810e+001 -3.761246e+000 -1.824115e+001 134 118 102
1.459008e+001 -3.825389e+000 -2.039060e+001 130 114 92
1.447337e+001 -2.844040e+000 -1.993101e+001 237 216 195
1.433647e+001 -5.589262e-001 -1.924282e+001 59 44 29
1.437801e+001 -5.631689e-001 -1.928398e+001 59 44 29
1.443459e+001 -3.280682e+000 -1.993166e+001 60 43 35
1.441561e+001 -1.236307e+000 -1.947473e+001 74 62 47
3.062649e+000 1.495419e+000 -8.717639e+000 130 108 60
1.429801e+001 -3.243976e+000 -1.981767e+001 69 55 45
6.455137e-001 5.010511e-001 -6.310318e+000 116 110 90
1.438358e+001 -3.594753e+000 -1.824919e+001 247 236 204
1.441244e+001 -3.364648e+000 -1.986343e+001 158 147 141
1.424727e-001 1.491178e+000 -5.869541e+000 241 210 164
8.570602e-002 1.494580e+000 -6.029029e+000 226 198 150
3.017362e-001 1.288879e+000 -5.800313e+000 255 251 208
3.555751e-001 1.346119e+000 -5.998530e+000 251 221 161
4.165367e-001 -2.527539e-002 -6.625270e+000 74 69 47
3.671152e-001 1.353971e+000 -5.974332e+000 127 97 59
4.067459e-001 5.356396e-001 -6.461574e+000 71 58 41
4.335553e-001 1.940484e-001 -6.636769e+000 13 9 5
4.690158e-001 1.064875e+000 -6.041935e+000 90 67 49
4.591264e+000 2.352532e+000 -1.201738e+001 22 16 10
4.591264e+000 2.352532e+000 -1.201738e+001 22 16 10
4.278024e-001 -1.016350e-001 -6.617163e+000 8 5 0
4.202745e-001 4.435991e-001 -6.483553e+000 86 68 54
4.188774e-001 4.765499e-001 -6.499506e+000 68 62 50
2.633829e-001 1.117766e+000 -6.280304e+000 68 51 32
2.396513e-001 1.189916e+000 -6.270783e+000 168 146 115
7.990710e-002 1.423694e+000 -5.980962e+000 247 219 170
2.552902e-001 1.115853e+000 -6.288740e+000 237 217 164
1.260271e+000 1.086260e+000 -6.074436e+000 243 233 199
2.192242e-001 1.150319e+000 -6.287385e+000 101 76 47
4.720634e+000 2.331249e+000 -1.204222e+001 27 12 1
4.441285e+000 2.404999e+000 -1.188616e+001 37 22 1
3.377775e+000 2.489049e+000 -1.026521e+001 55 34 13
4.561412e-001 1.295918e+000 -5.973452e+000 255 232 176
5.668998e-001 4.092802e-003 -6.437710e+000 137 128 98
4.577124e+000 2.297444e+000 -1.207590e+001 139 108 71
3.392079e+000 2.464124e+000 -1.049709e+001 63 43 18
2.248435e-002 1.508125e+000 -5.891717e+000 102 87 61
4.731355e-001 5.232904e-002 -6.618685e+000 155 165 185
4.731355e-001 5.232904e-002 -6.618685e+000 155 165 185
4.061336e-001 2.612295e-001 -6.661984e+000 156 173 194
4.567984e-001 1.039202e+000 -6.053816e+000 168 151 125
2.232353e-001 1.141568e+000 -6.319336e+000 22 4 0
3.777146e-001 1.090967e+000 -6.012952e+000 149 112 67
4.751477e-001 1.224621e+000 -5.819346e+000 215 186 146
3.363794e+000 2.471090e+000 -1.053805e+001 69 43 8
3.482065e+000 2.496774e+000 -1.035427e+001 135 119 84
3.549255e+000 2.500420e+000 -1.033888e+001 64 43 12
7.907438e-003 1.507486e+000 -5.919178e+000 204 187 160
4.176853e-001 2.863505e-001 -6.602910e+000 23 15 5
4.622263e-001 1.011774e+000 -6.006525e+000 72 61 41
3.545904e-001 1.479379e+000 -6.494921e+000 226 201 158
-2.346412e-001 1.445834e+000 -5.672033e+000 204 188 154
