ply
format ascii 1.0
element face 0
property list uchar int vertex_indices
element vertex 697
property float x
property float y
property float z
property uchar diffuse_red
property uchar diffuse_green
property uchar diffuse_blue
end_header
5.679364e-001 2.259169e-001 3.028319e+000 133 129 120
5.222603e-001 3.751359e-001 3.096283e+000 42 35 24
9.974573e-001 -3.737232e-002 3.101305e+000 109 97 73
5.988283e-001 5.703668e-003 2.987489e+000 148 148 146
1.116432e+000 5.250185e-001 3.231211e+000 132 116 83
6.424658e-001 6.548211e-001 2.958082e+000 138 138 130
1.032269e+000 2.103762e-001 3.156302e+000 135 119 94
8.636716e-001 2.154824e-001 3.034179e+000 143 128 99
6.463912e-001 2.725843e-001 2.934968e+000 152 148 139
6.541840e-001 5.875802e-001 2.948009e+000 143 139 130
7.351763e-001 -8.361061e-002 2.844630e+000 66 64 55
8.298827e-001 1.837564e-001 3.052896e+000 101 86 57
6.032157e-001 -1.117278e-001 3.038828e+000 64 71 68
1.004245e+000 2.559142e-001 3.172929e+000 59 50 31
8.290668e-001 2.645707e-001 3.054957e+000 133 116 90
8.548610e-001 4.583732e-001 3.045518e+000 139 128 110
4.534985e-001 -7.771500e-002 3.196957e+000 17 14 7
1.069261e+000 -6.091654e-002 3.116831e+000 108 101 82
4.696321e-001 4.431087e-001 3.461062e+000 41 32 21
6.301307e-001 4.539005e-001 2.962820e+000 151 146 140
4.452134e-001 -7.851115e-002 3.145805e+000 118 119 113
6.981260e-001 -1.720214e-002 2.858462e+000 127 120 113
4.342636e-001 6.360301e-002 3.182602e+000 142 135 125
1.126929e+000 5.201707e-001 3.282880e+000 86 75 49
8.119785e-001 5.490824e-001 3.087956e+000 83 70 44
7.010097e-001 -8.877230e-002 2.845262e+000 151 150 147
9.466736e-001 -6.157389e-002 3.030265e+000 75 69 50
7.093626e-001 -4.120339e-002 2.852657e+000 222 219 200
7.093626e-001 -4.120339e-002 2.852657e+000 222 219 200
7.003644e-001 -3.392564e-002 2.860145e+000 137 130 122
8.294121e-001 -4.386079e-002 3.052788e+000 102 95 74
8.332736e-001 2.026985e-001 3.042759e+000 171 165 141
5.049710e-001 3.790620e-001 3.408569e+000 10 6 3
5.123423e-001 4.439095e-001 3.416474e+000 87 89 83
6.573163e-001 6.963330e-001 2.952231e+000 137 144 138
9.131986e-001 -6.683945e-002 3.004489e+000 246 241 221
8.420516e-001 -3.586423e-002 3.045058e+000 19 19 19
3.844010e-001 2.110247e-001 3.271645e+000 151 144 126
8.165202e-001 2.504342e-001 3.047211e+000 223 210 178
8.370925e-001 2.690014e-001 3.059636e+000 47 29 9
8.369813e-001 2.687665e-001 3.059566e+000 47 29 9
8.232971e-001 2.686298e-001 3.052080e+000 37 26 8
8.082546e-001 2.696340e-001 3.042075e+000 55 38 12
4.945413e-001 3.926642e-001 3.414012e+000 69 70 62
9.390021e-001 4.396642e-001 3.129024e+000 228 224 195
8.137387e-001 4.466064e-001 3.088021e+000 127 117 95
1.147053e+000 5.445025e-001 3.250405e+000 115 99 76
9.457582e-001 5.168815e-001 3.154673e+000 90 91 78
6.770693e-001 4.880604e-001 2.909780e+000 217 211 185
7.589876e-001 6.318491e-001 3.003771e+000 107 93 66
7.426738e-001 -9.013224e-002 2.839941e+000 33 25 19
4.649814e-001 -7.463253e-002 3.151948e+000 28 23 17
8.490110e-001 -4.136145e-002 3.047125e+000 188 181 183
5.770255e-001 9.779404e-002 3.023335e+000 151 144 134
3.891910e-001 1.976484e-001 3.275363e+000 117 118 104
1.050391e+000 2.262077e-001 3.142078e+000 128 113 88
8.303686e-001 2.484133e-001 3.051482e+000 172 158 136
8.237686e-001 2.559855e-001 3.051520e+000 86 69 51
8.086971e-001 2.576804e-001 3.041641e+000 106 84 60
7.933394e-001 2.585690e-001 3.032276e+000 118 91 66
7.934929e-001 2.584961e-001 3.032147e+000 118 91 66
8.163453e-001 2.646731e-001 3.049823e+000 182 152 124
7.852392e-001 2.662968e-001 3.028412e+000 231 212 185
7.930935e-001 2.704810e-001 3.033726e+000 62 39 12
3.455951e-001 4.641351e-001 3.310953e+000 162 159 150
5.042328e-001 5.093628e-001 3.201650e+000 16 12 12
9.764298e-001 5.258312e-001 3.183770e+000 152 142 122
5.598852e-001 5.540081e-001 3.069466e+000 58 51 33
8.786975e-001 1.198705e-001 3.026080e+000 100 88 66
8.949522e-001 1.200650e-001 3.011768e+000 231 225 199
1.136099e+000 2.279487e-001 3.250428e+000 225 207 183
9.895737e-001 2.371511e-001 3.152900e+000 229 211 181
8.300705e-001 2.635721e-001 3.055429e+000 129 112 86
8.301238e-001 2.638728e-001 3.055472e+000 129 112 86
8.024074e-001 2.726190e-001 3.036074e+000 87 59 29
5.295525e-001 4.365864e-001 3.378777e+000 78 76 64
5.296715e-001 5.318680e-001 3.111102e+000 103 88 69
5.317607e-001 5.273407e-001 3.097596e+000 103 88 69
6.628601e-001 7.118360e-001 2.964036e+000 255 254 250
5.780338e-001 -1.052118e-001 3.012127e+000 57 42 36
4.658459e-001 -6.884258e-002 3.148067e+000 90 88 76
1.082771e+000 -6.784423e-002 3.125273e+000 248 249 237
4.543033e-001 -6.562839e-002 3.162853e+000 40 35 29
5.779598e-001 1.040661e-001 3.013725e+000 108 104 93
8.559859e-001 1.148543e-001 3.048624e+000 96 80 55
8.622100e-001 1.169074e-001 3.040334e+000 80 69 49
6.465874e-001 1.161771e-001 2.930171e+000 96 92 81
6.966822e-001 1.227469e-001 2.868517e+000 237 231 205
4.069988e-001 2.125298e-001 3.243357e+000 134 127 109
1.055582e+000 2.231972e-001 3.141414e+000 240 239 209
9.568269e-001 2.211673e-001 3.109714e+000 236 233 203
4.069205e-001 3.575917e-001 3.282285e+000 141 134 116
1.033970e+000 4.271518e-001 3.152927e+000 244 243 215
9.863779e-001 5.153276e-001 3.188385e+000 111 108 91
6.233513e-001 4.617798e-001 2.974075e+000 157 153 142
6.330211e-001 4.672972e-001 2.955363e+000 93 89 80
6.514908e-001 4.675991e-001 2.929961e+000 165 161 152
6.475409e-001 4.708646e-001 2.935139e+000 88 84 75
5.929342e-001 5.646460e-001 3.018840e+000 63 53 34
8.359481e-001 -8.063987e-002 3.026861e+000 7 12 5
4.454266e-001 -8.454834e-002 3.116170e+000 25 27 26
6.645719e-001 -6.383780e-002 2.900430e+000 90 89 87
4.620191e-001 -8.082221e-002 3.146049e+000 78 76 69
4.367015e-001 -7.673062e-002 3.113427e+000 124 123 119
4.759179e-001 -6.457490e-002 3.162670e+000 54 47 31
4.759179e-001 -6.457490e-002 3.162670e+000 54 47 31
7.282980e-001 -3.543609e-002 2.853385e+000 221 206 190
6.992867e-001 3.508755e-002 2.863994e+000 110 103 86
8.678968e-001 1.183278e-001 3.036152e+000 89 77 57
8.678968e-001 1.183278e-001 3.036152e+000 89 77 57
3.889023e-001 1.840960e-001 3.239884e+000 70 66 55
1.161837e+000 1.819366e-001 3.268622e+000 91 79 55
1.011899e+000 2.408001e-001 3.172598e+000 47 48 36
1.134199e+000 4.412534e-001 3.275760e+000 121 124 107
8.626304e-001 4.554428e-001 3.039504e+000 107 102 82
6.691696e-001 4.787690e-001 2.916111e+000 165 163 156
8.166058e-001 5.497518e-001 3.085723e+000 57 50 28
6.871386e-001 7.090841e-001 2.973431e+000 163 150 142
6.896619e-001 7.159505e-001 2.976504e+000 128 133 113
7.437341e-001 -8.750642e-002 2.846259e+000 151 139 130
7.565938e-001 -8.774279e-002 2.853841e+000 199 192 175
8.333043e-001 -8.811086e-002 3.024143e+000 41 35 18
6.678816e-001 -6.830663e-002 2.904674e+000 95 94 92
6.678816e-001 -6.830663e-002 2.904674e+000 95 94 92
6.715205e-001 -6.666271e-002 2.891644e+000 141 140 138
8.082884e-001 -7.920365e-002 3.078310e+000 12 11 6
4.113181e-001 -7.526903e-002 3.128184e+000 18 20 17
4.386648e-001 -7.177364e-002 3.119048e+000 29 28 24
6.810929e-001 -4.803082e-002 2.883336e+000 107 102 99
1.105017e+000 -6.945497e-002 3.142354e+000 179 169 154
8.405248e-001 -4.640511e-002 3.034143e+000 57 52 44
6.979856e-001 6.001281e-002 2.859496e+000 113 106 90
6.938136e-001 1.231710e-001 2.865435e+000 131 124 108
9.473228e-001 2.020274e-001 3.121601e+000 125 106 76
8.283367e-001 2.001370e-001 3.042212e+000 188 179 153
1.148250e+000 3.447390e-001 3.273889e+000 138 141 122
4.923464e-001 4.226107e-001 3.426549e+000 46 48 40
9.878275e-001 4.981169e-001 3.187671e+000 116 119 103
5.599978e-001 5.480067e-001 3.054001e+000 46 43 28
6.320998e-001 6.182524e-001 2.977483e+000 111 111 103
6.811601e-001 7.180091e-001 2.976237e+000 241 247 235
4.567484e-001 -1.153510e-001 3.109669e+000 153 131 107
6.055504e-001 -9.736795e-002 2.968374e+000 126 128 127
9.066676e-001 -7.590473e-002 2.982145e+000 243 247 232
4.412059e-001 -8.454349e-002 3.119152e+000 117 119 118
9.078996e-001 -7.617772e-002 3.001204e+000 97 95 75
9.376027e-001 -7.393385e-002 2.993240e+000 254 237 221
7.063422e-001 -4.446464e-002 2.851865e+000 226 221 202
7.139229e-001 -4.388511e-002 2.856699e+000 149 146 127
6.849441e-001 -3.741488e-002 2.875173e+000 99 94 88
6.757818e-001 -3.196863e-002 2.886288e+000 109 104 101
8.374375e-001 -4.069287e-002 3.045476e+000 105 97 85
7.000415e-001 5.596627e-002 2.858390e+000 228 221 202
5.943065e-001 1.040266e-001 2.989454e+000 87 83 72
5.981558e-001 1.048973e-001 2.982821e+000 90 86 75
6.922896e-001 1.600053e-001 2.869698e+000 116 108 89
9.551410e-001 2.073787e-001 3.106005e+000 127 111 78
9.581145e-001 2.135444e-001 3.118193e+000 231 225 193
1.157841e+000 2.304179e-001 3.268767e+000 50 44 28
6.165390e-001 2.743209e-001 2.989139e+000 112 109 92
9.595248e-001 3.108033e-001 3.123553e+000 196 182 162
1.097056e+000 4.233206e-001 3.232925e+000 65 50 38
9.251167e-001 4.287288e-001 3.135302e+000 131 125 96
6.300122e-001 4.706983e-001 2.969451e+000 86 82 73
9.127964e-001 5.379995e-001 3.143361e+000 99 82 59
8.137194e-001 5.541565e-001 3.090676e+000 69 62 38
7.248062e-001 7.069510e-001 3.002622e+000 224 226 246
6.841584e-001 7.184059e-001 2.979741e+000 103 106 91
6.591039e-001 7.034342e-001 2.954416e+000 91 101 92
6.591039e-001 7.034342e-001 2.954416e+000 91 101 92
6.964701e-001 7.327538e-001 2.988930e+000 123 123 105
8.256877e-001 1.677460e-001 3.042125e+000 83 69 42
7.938791e-001 2.379280e-001 3.009306e+000 216 211 182
7.977402e-001 2.336512e-001 3.019226e+000 220 215 186
7.773474e-001 -6.495315e-002 2.917718e+000 49 41 28
7.344582e-001 1.412535e-001 2.916416e+000 158 143 111
8.430080e-001 2.657315e-001 3.065738e+000 155 147 128
8.812776e-001 1.330367e-001 3.045788e+000 118 105 86
7.994402e-001 2.650336e-001 3.037989e+000 213 205 170
7.774120e-001 -8.005955e-002 2.909668e+000 254 252 247
9.135748e-001 -4.873820e-002 3.018046e+000 108 101 84
7.934210e-001 2.602347e-001 3.031515e+000 96 81 60
8.853437e-001 1.590440e-001 3.052724e+000 236 230 204
8.714035e-001 2.411002e-001 3.065703e+000 227 227 199
8.214966e-001 2.492901e-001 3.051840e+000 171 157 131
7.996892e-001 2.734156e-001 3.038780e+000 89 67 36
8.698701e-001 2.502006e-001 3.067198e+000 222 221 193
7.716400e-001 -7.787963e-002 2.906293e+000 119 102 77
7.809421e-001 -8.015806e-002 2.912483e+000 255 250 236
7.809421e-001 -8.015806e-002 2.912483e+000 255 250 236
8.191372e-001 2.037063e-001 3.051237e+000 177 167 140
7.583449e-001 -4.695157e-002 2.854010e+000 195 182 164
8.084854e-001 1.073579e-001 3.042635e+000 55 48 23
8.084854e-001 1.073579e-001 3.042635e+000 55 48 23
8.277734e-001 2.414662e-001 3.055235e+000 164 152 130
8.506480e-001 4.599699e-001 3.132537e+000 255 255 249
7.488251e-001 6.614956e-001 3.088919e+000 197 224 245
7.815112e-001 2.338545e-001 3.022999e+000 204 199 170
1.187064e+000 5.489268e-001 3.249232e+000 96 82 55
6.739443e-001 5.828596e-001 3.048416e+000 120 103 75
8.081011e-001 -8.950587e-002 3.045360e+000 157 124 94
9.973438e-001 4.275411e-001 3.115703e+000 230 225 205
1.031177e+000 -6.417455e-002 3.189660e+000 99 92 75
8.896118e-001 1.833609e-001 3.111132e+000 128 112 79
9.449553e-001 5.226271e-001 3.111066e+000 38 38 31
9.449553e-001 5.226271e-001 3.111066e+000 38 38 31
1.014689e+000 3.979332e-001 2.642908e+000 39 28 11
8.055928e-001 2.782275e-001 3.050103e+000 202 191 161
1.118538e+000 3.287843e-001 3.186908e+000 200 194 170
9.658819e-001 2.025670e-001 3.121150e+000 207 197 167
6.829223e-001 2.225983e-001 3.128523e+000 90 80 61
7.890571e-001 2.661304e-001 3.023163e+000 209 189 160
6.139380e-001 -3.075710e-002 3.024111e+000 50 37 23
1.070745e+000 -5.621616e-002 3.218195e+000 54 38 30
8.115868e-001 2.492069e-001 3.046139e+000 207 191 166
7.987905e-001 2.602954e-001 3.026049e+000 93 84 64
9.517486e-001 3.365002e-001 3.093081e+000 191 186 167
8.781504e-001 5.186478e-001 2.806948e+000 14 10 10
8.449758e-001 5.294585e-001 2.891124e+000 20 13 11
7.896811e-001 1.234250e-001 2.945020e+000 187 177 150
1.060529e+000 1.829979e-001 3.215833e+000 134 111 80
8.784599e-001 1.895079e-001 3.111039e+000 134 115 86
8.184982e-001 3.312450e-001 2.832469e+000 85 63 35
7.116188e-001 -7.510682e-002 2.977530e+000 241 244 224
1.075875e+000 -7.475304e-002 3.194772e+000 175 155 130
6.232716e-001 -3.969398e-002 3.018757e+000 40 27 15
9.703189e-001 2.414480e-001 3.128817e+000 219 199 166
1.028085e+000 2.763543e-001 3.196493e+000 220 219 191
8.773925e-001 5.121784e-001 2.808206e+000 14 5 5
9.524556e-001 4.861882e-001 3.129556e+000 203 200 172
1.057307e+000 -6.973167e-002 3.214941e+000 238 230 221
9.658903e-001 2.019849e-001 3.112319e+000 212 198 169
1.142751e+000 3.195165e-001 3.180562e+000 44 35 24
1.008702e+000 5.229155e-001 2.584424e+000 33 28 19
9.511207e-001 5.104927e-001 3.130423e+000 203 197 175
1.060710e+000 -7.054429e-002 3.194907e+000 243 239 230
6.172318e-001 -3.699867e-002 3.031188e+000 149 130 116
1.332835e+000 3.217418e-001 3.259831e+000 60 47 34
1.034387e+000 4.265089e-001 3.146801e+000 37 35 22
9.496951e-001 5.581454e-001 3.121304e+000 207 195 169
8.670067e-001 1.005611e-001 3.119496e+000 90 75 45
8.650078e-001 1.001974e-001 3.121197e+000 90 75 45
1.064162e+000 1.194544e-001 3.066545e+000 60 48 22
1.039681e+000 2.364228e-001 3.146419e+000 128 120 101
8.405820e-001 2.429531e-001 3.059408e+000 55 50 31
8.083698e-001 3.237645e-001 2.836671e+000 209 187 163
1.320423e+000 5.369581e-001 3.279282e+000 198 200 169
8.772738e-001 -5.922311e-002 3.009799e+000 14 7 3
9.317503e-001 2.671088e-001 3.168533e+000 231 227 200
8.811366e-001 5.430910e-001 3.234440e+000 221 211 184
8.899562e-001 -6.060881e-002 3.010086e+000 96 92 80
8.801653e-001 -4.729035e-002 3.005072e+000 29 24 18
9.709756e-001 2.324873e-001 3.192573e+000 45 44 32
9.211343e-001 1.885843e-001 3.132188e+000 145 122 91
8.956089e-001 4.102095e-001 3.168783e+000 228 223 193
9.383434e-001 -7.095775e-002 2.974746e+000 243 246 229
9.533858e-001 -5.004173e-002 3.050773e+000 99 83 55
9.399472e-001 2.283013e-001 3.165662e+000 231 210 180
8.593739e-001 -3.267717e-002 3.004852e+000 43 42 39
9.376847e-001 2.358697e-001 3.150173e+000 166 153 126
9.002343e-001 4.202151e-001 3.178316e+000 240 237 216
8.025016e-001 5.814899e-001 3.129286e+000 222 219 189
8.163304e-001 5.914260e-001 3.154249e+000 249 242 214
7.720363e-001 -8.105251e-002 2.905654e+000 237 237 219
9.632068e-001 -5.971045e-002 3.013525e+000 130 109 87
1.067743e+000 -6.772995e-002 3.174129e+000 95 102 83
8.962317e-001 4.630725e-001 3.213859e+000 218 206 198
1.002778e+000 5.596959e-001 3.165690e+000 114 99 72
1.225094e+000 2.842899e-001 3.214132e+000 24 26 16
1.220596e+000 4.458419e-001 3.221003e+000 15 17 14
1.220596e+000 4.458419e-001 3.221003e+000 15 17 14
8.042808e-001 5.732703e-001 3.095480e+000 96 83 57
1.192114e+000 2.195686e-001 3.209338e+000 212 205 177
8.110814e-001 5.579531e-001 2.983387e+000 40 34 19
6.413126e-001 1.527068e-001 3.019743e+000 212 207 177
1.208070e+000 5.690222e-001 3.259738e+000 83 75 49
8.293518e-001 5.797738e-001 3.110245e+000 211 204 176
8.256011e-001 -7.379460e-002 3.097055e+000 72 65 57
8.294384e-001 -7.441292e-002 3.106748e+000 227 227 213
9.550563e-001 2.188897e-001 3.124119e+000 207 201 175
1.232695e+000 2.599424e-001 3.188515e+000 36 28 22
8.099918e-001 2.581594e-001 3.039862e+000 67 61 40
8.537042e-001 5.422865e-001 3.121008e+000 212 206 179
9.668137e-001 -4.931414e-002 2.801518e+000 18 13 9
9.521736e-001 -4.819749e-002 2.797423e+000 5 6 0
1.214949e+000 4.574183e-001 3.191027e+000 149 139 129
8.090155e-001 -6.490288e-002 3.047488e+000 238 240 226
1.215453e+000 3.229235e-001 3.219218e+000 95 86 59
6.540925e-001 6.736748e-001 3.047807e+000 106 88 80
9.455213e-001 -4.954553e-002 2.764376e+000 21 17 7
8.876492e-001 -8.523483e-003 2.754699e+000 81 69 57
1.228043e+000 2.782169e-001 3.267916e+000 101 95 73
1.229572e+000 3.025805e-001 3.229205e+000 104 105 87
1.240748e+000 3.202997e-001 3.177797e+000 42 31 28
1.223542e+000 4.147503e-001 3.227970e+000 116 113 93
8.764464e-001 5.091276e-001 2.808893e+000 14 5 5
8.248736e-001 5.295221e-001 3.108931e+000 215 208 184
6.727307e-001 6.745012e-001 3.040674e+000 208 228 237
7.205139e-001 -3.098709e-002 2.670703e+000 21 12 3
1.254487e+000 -1.277804e-002 2.842480e+000 19 6 4
1.248741e+000 7.437583e-003 2.847194e+000 12 1 0
1.207556e+000 4.648666e-001 3.188191e+000 205 202 177
6.480706e-001 6.849498e-001 3.034275e+000 183 183 159
1.017253e+000 -2.145796e-002 2.591818e+000 17 7 2
8.306021e-001 -3.955846e-002 3.041947e+000 135 110 97
7.096374e-001 5.467170e-001 3.008070e+000 92 84 54
6.555391e-001 6.755189e-001 3.044143e+000 77 58 49
6.413964e-001 6.757583e-001 3.032853e+000 231 231 223
1.048440e+000 -6.767367e-002 3.191073e+000 202 202 182
1.257749e+000 -1.694191e-002 2.839120e+000 86 78 59
1.229234e+000 2.752294e-001 3.271722e+000 217 213 186
9.568869e-001 4.496101e-001 3.130965e+000 76 70 51
9.544010e-001 8.679257e-001 2.902566e+000 202 229 250
6.367726e-001 2.195799e-001 3.027293e+000 216 211 182
1.034577e+000 1.729520e-001 3.130742e+000 88 77 47
8.183296e-001 1.714494e-001 3.059585e+000 86 75 47
1.098491e+000 4.977109e-001 3.161385e+000 221 214 186
8.274569e-001 2.590581e-001 3.066261e+000 100 92 71
1.004657e+000 2.899826e-001 3.109556e+000 222 218 191
1.030572e+000 5.121607e-001 3.143475e+000 43 41 29
1.030572e+000 5.121607e-001 3.143475e+000 43 41 29
1.197389e+000 2.780599e-001 3.184785e+000 171 161 144
6.679490e-001 5.683832e-001 3.024879e+000 127 111 78
9.612867e-001 2.154686e-001 3.105261e+000 120 109 79
1.126796e+000 2.993993e-001 3.177561e+000 221 216 194
1.209114e+000 5.685794e-001 3.255826e+000 90 80 53
1.209114e+000 5.685794e-001 3.255826e+000 90 80 53
7.957977e-001 -6.778981e-002 3.046169e+000 39 35 24
9.358279e-001 -3.375804e-002 2.773296e+000 7 7 5
1.213100e+000 2.722525e-001 3.189582e+000 184 172 149
9.559904e-001 2.576809e-001 3.103665e+000 41 41 28
1.078844e+000 -4.311319e-002 3.027612e+000 42 31 20
1.046059e+000 1.011343e-001 3.176877e+000 117 107 87
9.295469e-001 5.336459e-001 3.112982e+000 226 212 186
1.014472e+000 5.779277e-001 3.189212e+000 107 89 65
1.019407e+000 5.814976e-001 3.184569e+000 107 89 65
8.655183e-001 5.893039e-001 3.123775e+000 116 102 71
8.618315e-001 5.861459e-001 3.128350e+000 116 102 71
8.460749e-001 -7.464320e-002 3.114786e+000 231 227 218
5.995221e-001 -2.429901e-002 3.053475e+000 213 210 191
7.973325e-001 2.618141e-001 3.042754e+000 209 194 165
1.197791e+000 5.044477e-001 2.254374e+000 43 29 17
6.458124e-001 2.204793e-001 3.139544e+000 208 192 159
6.856621e-001 -6.979179e-002 3.003412e+000 104 97 78
8.814349e-001 -3.736163e-002 2.774291e+000 40 41 45
8.911588e-001 2.031674e-001 3.098831e+000 216 211 182
1.175151e+000 2.487139e-001 3.203283e+000 155 143 128
1.172040e+000 2.475309e-001 3.205897e+000 155 143 128
8.295350e-001 2.620654e-001 3.058264e+000 108 98 73
1.153796e+000 -4.326642e-002 2.879422e+000 36 25 17
1.153796e+000 -4.326642e-002 2.879422e+000 36 25 17
1.158489e+000 6.899920e-003 2.873507e+000 3 4 0
1.032696e+000 1.236027e-001 3.052692e+000 134 122 96
1.164590e+000 2.187449e-001 3.196764e+000 212 208 179
9.454796e-001 2.466857e-001 3.102113e+000 215 199 165
9.545739e-001 2.599849e-001 3.093298e+000 185 179 156
1.037063e+000 2.853132e-001 3.182066e+000 119 106 87
1.238405e+000 3.294198e-001 3.170211e+000 213 207 188
1.203161e+000 3.301200e-001 3.196503e+000 217 209 183
1.045600e+000 4.635047e-001 3.105594e+000 117 104 85
7.971688e-001 -7.682366e-002 3.050060e+000 136 118 93
9.405873e-001 -4.486873e-002 2.782026e+000 60 59 46
8.274567e-001 -2.772724e-002 3.053559e+000 186 178 170
1.117806e+000 -1.642979e-002 2.869200e+000 94 89 69
8.247081e-001 1.725079e-001 3.111256e+000 230 224 198
9.318177e-001 2.017771e-001 3.104981e+000 214 205 176
1.240336e+000 2.840608e-001 3.179328e+000 41 29 23
6.656294e-001 1.828949e-001 3.448074e+000 218 214 191
1.029635e+000 4.213284e-001 3.155902e+000 126 119 103
1.047614e+000 5.732024e-001 3.213597e+000 122 103 73
9.438500e-001 -4.981835e-002 2.781553e+000 32 26 10
1.118874e+000 -4.165573e-002 2.868298e+000 95 93 80
1.196749e+000 -2.241968e-002 2.853710e+000 11 0 0
1.196033e+000 -7.419248e-003 2.854194e+000 11 3 0
1.196033e+000 -7.419248e-003 2.854194e+000 11 3 0
1.196097e+000 5.858834e-003 2.854111e+000 11 4 0
9.798406e-001 -8.024589e-003 3.113774e+000 16 3 0
5.970836e-001 1.186495e-001 3.031397e+000 213 207 181
1.123812e+000 -4.498149e-002 2.870357e+000 42 36 19
8.259410e-001 -3.447850e-002 3.107382e+000 224 218 197
8.317832e-001 -2.650783e-002 3.048839e+000 192 185 177
1.252635e+000 1.188212e-001 3.145202e+000 43 30 12
8.328055e-001 2.649098e-001 3.061382e+000 90 82 63
8.265190e-001 2.654988e-001 3.057910e+000 112 95 76
1.031067e+000 4.589456e-001 3.148274e+000 41 44 35
1.045868e+000 4.756539e-001 3.109725e+000 109 116 101
1.138055e+000 5.344245e-001 3.212358e+000 216 199 175
8.319191e-001 -5.171348e-002 3.040607e+000 136 140 141
8.332275e-001 -4.642476e-002 3.055135e+000 8 5 4
8.842667e-001 -3.720104e-002 2.772420e+000 21 22 25
9.531665e-001 -2.011195e-002 2.807972e+000 101 95 81
1.257628e+000 1.222027e-001 3.143746e+000 111 98 79
8.383251e-001 1.230418e-001 3.070079e+000 67 59 40
1.163188e+000 2.164256e-001 3.196014e+000 213 207 178
7.046569e-001 2.017381e-001 3.010642e+000 204 194 164
8.227444e-001 2.321541e-001 3.111462e+000 214 204 181
8.003386e-001 2.650836e-001 3.045121e+000 203 191 159
8.065500e-001 2.662776e-001 3.045652e+000 34 27 9
1.213859e+000 4.564147e-001 3.189514e+000 70 54 41
8.307703e-001 4.419140e-001 3.112166e+000 180 175 146
9.429379e-001 5.541803e-001 3.126241e+000 207 196 166
1.026296e+000 1.935028e-001 3.223491e+000 234 229 201
9.235837e-001 4.480120e-001 3.224574e+000 44 46 36
9.235837e-001 4.480120e-001 3.224574e+000 44 46 36
6.991750e-001 5.346345e-001 2.991934e+000 93 79 53
7.267456e-001 6.075219e-001 3.057982e+000 108 92 66
6.763015e-001 6.280349e-001 2.997046e+000 224 217 190
6.794994e-001 6.877524e-001 3.028303e+000 213 239 254
6.932728e-001 6.675203e-001 3.042948e+000 251 254 255
9.867749e-001 3.184364e-001 3.227123e+000 231 231 203
6.885407e-001 5.535432e-001 2.988765e+000 97 90 55
7.043281e-001 5.745307e-001 3.008969e+000 129 109 76
6.911029e-001 1.891242e-001 3.070209e+000 107 90 57
6.578180e-001 7.059569e-001 3.013646e+000 249 254 255
1.083430e+000 2.017807e-001 3.308874e+000 140 124 105
6.893078e-001 6.785415e-001 3.037431e+000 249 251 223
1.014434e+000 3.480441e-001 3.384545e+000 69 68 66
1.985821e+000 1.107424e-001 1.709606e+000 50 28 16
2.013021e+000 1.156457e+000 2.134216e+000 255 255 255
4.560630e+000 1.909460e+000 -5.442669e-002 228 223 199
2.395185e+000 1.576109e-002 1.964664e+000 4 3 4
2.373984e+000 5.692472e-003 1.907466e+000 48 25 7
2.412328e+000 -3.367478e-002 1.954600e+000 16 16 17
2.314641e+000 4.879404e-002 1.900183e+000 77 43 17
1.233403e+000 3.683783e-001 3.225226e+000 122 117 96
1.210239e+000 5.789383e-001 3.264070e+000 205 204 174
6.121395e-001 6.593521e-001 3.030256e+000 250 254 254
2.381175e+000 9.028106e-003 1.932767e+000 27 7 0
1.005042e+000 4.654612e-001 3.119991e+000 216 224 201
8.216141e-001 -5.285696e-002 3.048216e+000 139 135 139
2.327840e+000 3.657530e-002 1.896770e+000 22 1 0
1.006270e+000 1.510060e-001 3.042443e+000 164 150 124
8.618570e-001 2.043046e-001 3.120796e+000 174 167 141
4.269021e+000 2.219285e+000 2.917971e-001 220 215 202
3.349108e-001 -1.427123e-001 3.688861e+000 112 86 63
6.000687e-001 -8.554148e-002 3.057818e+000 28 15 1
6.564340e-001 2.171799e-001 3.130134e+000 94 86 61
6.894549e-001 6.757863e-001 3.054632e+000 61 70 77
6.448037e-001 6.691283e-001 3.033463e+000 227 213 203
6.450537e-001 6.694554e-001 3.033094e+000 227 213 203
7.018390e+000 3.086795e+000 -3.148405e+000 44 43 41
1.040001e+000 1.252586e-001 3.182054e+000 105 97 78
8.429035e-001 3.123244e-001 2.854898e+000 37 29 18
1.258831e+000 5.726809e-001 3.277925e+000 122 104 74
1.276715e+000 8.243340e-001 2.670956e+000 223 218 186
1.054571e+000 5.698161e-001 3.199226e+000 220 216 186
7.857474e-001 1.222738e-001 2.952908e+000 186 179 151
6.762424e-001 6.694826e-001 3.040272e+000 103 81 71
8.679255e-001 1.090382e-001 3.119379e+000 164 154 125
1.254938e+000 5.735637e-001 3.289771e+000 210 199 171
9.565792e-001 5.488191e-001 3.130164e+000 149 129 96
1.143813e+000 -5.835118e-002 3.259720e+000 46 38 25
4.629521e+000 1.485206e-001 -5.000006e-001 20 0 0
4.629521e+000 1.485206e-001 -5.000006e-001 20 0 0
7.209858e-001 1.993606e-001 3.017184e+000 105 88 62
1.148810e+000 5.465819e-001 3.203094e+000 215 201 173
9.054018e-001 5.917932e-001 3.138888e+000 111 95 64
1.070932e+000 -7.319377e-002 3.186949e+000 175 161 143
1.077133e+000 -1.363258e-002 3.034982e+000 24 6 0
1.230293e+000 2.039043e-001 3.199596e+000 207 195 167
8.843776e+000 2.660322e+000 -4.809246e+000 115 106 77
1.243369e+000 2.395674e-001 3.219562e+000 80 74 53
1.166728e+000 2.964088e-001 3.200240e+000 224 217 194
1.099785e+000 5.840599e-001 3.212791e+000 98 89 60
1.014222e+000 5.837486e-001 3.176296e+000 150 132 108
8.455054e-001 6.207605e-001 3.116133e+000 238 231 203
6.775396e-001 6.742747e-001 3.032380e+000 87 71 62
6.016938e-001 -5.636743e-002 3.081497e+000 197 186 168
8.266139e-001 -5.370573e-002 3.053989e+000 16 13 9
6.909637e-001 -4.177617e-002 2.672377e+000 51 61 53
8.280467e-001 -4.858471e-002 3.054000e+000 60 62 59
6.041119e-001 -4.489048e-002 3.053300e+000 38 37 22
8.215664e-001 -4.709607e-002 3.048894e+000 13 18 13
6.041846e-001 -4.357399e-002 3.056778e+000 86 91 72
4.598000e+000 2.013810e-001 -4.487049e-001 68 49 32
1.174150e+000 2.057933e-001 3.190009e+000 210 201 166
1.173988e+000 2.065313e-001 3.187155e+000 118 107 73
9.852027e-001 2.003565e-001 3.115006e+000 110 93 65
7.605902e-001 2.403720e-001 3.034591e+000 232 228 205
1.153294e+000 2.822325e-001 3.201148e+000 206 205 175
1.061039e+000 4.549094e-001 2.460746e+000 57 42 18
6.447110e-001 6.739505e-001 3.022891e+000 118 115 104
6.579864e-001 6.703360e-001 3.039844e+000 148 145 155
6.524499e-001 6.740010e-001 3.043850e+000 223 226 208
7.758844e-001 4.247616e-001 2.984694e+000 62 49 30
1.223274e+000 1.675600e-001 3.195459e+000 100 85 56
1.191220e+000 2.197051e-001 3.210458e+000 227 220 192
1.218998e+000 2.827138e-001 3.219374e+000 31 29 20
1.048745e+000 -6.263379e-002 3.165804e+000 107 98 81
1.196445e+000 4.228305e-001 3.183923e+000 251 245 223
1.047803e+000 5.493888e-001 3.185937e+000 230 223 194
9.560891e-001 5.358556e-001 3.121959e+000 218 211 182
6.961799e-001 5.687458e-001 3.018187e+000 139 119 86
9.476527e-001 5.265821e-001 3.107362e+000 50 52 38
8.533515e-001 5.792020e-001 3.119269e+000 234 227 199
1.125300e+000 -3.658076e-002 2.865311e+000 102 99 80
1.125500e+000 -1.446459e-002 2.863508e+000 98 91 72
1.256201e+000 2.674593e-001 3.172020e+000 45 41 33
1.221447e+000 4.565394e-001 3.193198e+000 63 56 38
7.100698e-001 5.489038e-001 2.951775e+000 23 18 15
9.645755e-001 5.534761e-001 3.126504e+000 162 144 108
8.172911e-001 5.899111e-001 3.106216e+000 106 91 63
8.172911e-001 5.899111e-001 3.106216e+000 106 91 63
6.629607e-001 6.683061e-001 3.036725e+000 215 230 242
1.049181e+000 5.649278e-002 3.178692e+000 137 125 106
9.725252e-001 2.058701e-001 3.113972e+000 224 217 188
1.039013e+000 4.442574e-001 3.148696e+000 137 124 102
1.219896e+000 5.786044e-001 3.252278e+000 107 93 67
8.036361e-001 -6.502724e-002 3.055906e+000 251 255 246
5.950464e-001 -3.688825e-002 3.083637e+000 182 166 145
5.874115e-001 -3.273645e-002 3.078459e+000 73 58 43
1.172906e+000 3.054718e-001 3.199267e+000 177 177 165
1.051065e+000 3.386408e-001 3.115977e+000 112 100 78
1.034515e+000 4.404631e-001 3.176290e+000 128 118 92
8.020051e-001 -6.085488e-002 3.048116e+000 39 33 21
6.701811e-001 -4.909578e-002 3.015377e+000 71 71 60
1.018683e+000 2.468122e-001 3.129150e+000 228 207 178
9.600884e-001 2.899585e-001 3.085412e+000 197 195 178
6.719761e-001 2.724653e-001 2.995231e+000 98 71 37
9.055745e-001 3.331584e-001 3.081269e+000 240 235 207
1.039708e+000 4.378476e-001 3.145135e+000 131 124 105
1.036087e+000 4.362382e-001 3.182928e+000 243 238 209
7.105773e-001 5.419572e-001 2.951706e+000 14 16 7
1.225430e+000 5.754653e-001 3.259267e+000 219 221 192
6.348239e-001 6.712717e-001 3.020486e+000 255 255 250
5.907900e-001 -8.490085e-002 3.094255e+000 36 29 20
8.079278e-001 -7.001373e-002 3.045563e+000 81 53 43
6.091451e-001 -3.990374e-002 3.072394e+000 71 56 40
8.296965e-001 4.983111e-001 2.682160e+000 20 15 10
1.224024e+000 3.862909e-001 3.271390e+000 228 234 201
8.795503e-001 5.081915e-001 2.802367e+000 13 12 0
1.146465e+000 4.314142e-001 3.188315e+000 130 122 89
1.149212e+000 4.725577e-001 3.196170e+000 235 232 199
1.151482e+000 5.279300e-001 3.206427e+000 183 176 148
1.209908e+000 5.803201e-001 3.262561e+000 221 217 186
6.511103e-001 6.042956e-001 3.043128e+000 109 103 74
6.795211e-001 6.681473e-001 3.048973e+000 252 249 234
6.473041e-001 6.952001e-001 3.026225e+000 253 255 253
8.102136e-001 -4.308169e-002 3.047078e+000 190 203 195
8.195818e-001 -3.995844e-002 3.056624e+000 164 139 121
5.372401e-001 -4.549188e-002 3.734767e+000 25 14 1
1.042580e+000 2.336336e-001 3.178745e+000 124 116 89
1.020908e+000 2.540439e-001 3.120476e+000 189 173 150
1.020908e+000 2.540439e-001 3.120476e+000 189 173 150
1.039088e+000 3.604323e-001 3.182263e+000 233 227 198
1.068255e+000 5.057023e-001 3.198394e+000 230 226 199
7.197066e-001 6.032036e-001 3.072884e+000 212 208 179
1.069989e+000 -7.441593e-002 3.188379e+000 193 177 157
1.077317e+000 -6.901126e-002 3.184370e+000 210 207 191
1.152221e+000 -4.008473e-002 2.876831e+000 38 23 9
8.359369e-001 -3.335491e-002 3.054108e+000 35 33 28
1.258796e+000 8.103405e-002 3.117773e+000 1 4 0
1.161154e+000 2.036902e-001 3.178064e+000 196 181 150
8.400725e-001 2.436387e-001 3.060025e+000 66 58 39
1.032219e+000 5.344165e-001 2.523473e+000 216 237 230
6.029449e-001 3.837629e-001 3.036640e+000 191 193 178
1.040609e+000 4.557767e-001 3.131699e+000 28 26 15
9.501895e-001 4.904399e-001 3.110276e+000 140 128 102
8.623973e-001 5.088256e-001 3.119749e+000 74 68 51
1.212917e+000 5.757950e-001 3.263666e+000 91 90 61
1.212917e+000 5.757950e-001 3.263666e+000 91 90 61
1.028250e+000 5.843036e-001 3.184073e+000 228 224 197
5.995233e-001 -8.798164e-002 3.068333e+000 144 137 111
8.087934e-001 -7.350684e-002 3.045380e+000 224 215 197
8.130451e-001 -7.026791e-002 3.048203e+000 29 20 15
1.056435e+000 -6.468062e-002 3.182524e+000 217 214 193
8.299254e-001 -2.649234e-002 3.051816e+000 210 204 193
8.234653e-001 -2.576957e-002 3.050420e+000 31 17 3
7.071229e-001 2.253723e-001 3.154175e+000 63 46 30
1.155529e+000 3.254653e-001 3.166357e+000 203 189 179
1.077430e+000 3.090124e-001 3.194414e+000 77 73 48
7.586803e-001 5.237666e-001 2.857769e+000 83 76 64
1.195959e+000 5.191590e-001 3.214727e+000 177 176 155
8.084945e-001 5.393280e-001 2.989096e+000 33 23 12
1.007837e+000 5.552358e-001 3.129694e+000 128 107 76
6.423042e-001 6.728385e-001 3.028315e+000 206 200 184
6.890675e-001 6.768460e-001 3.049335e+000 220 230 208
6.888956e-001 6.747672e-001 3.055831e+000 64 81 80
6.451676e-001 6.709256e-001 3.038426e+000 171 177 162
7.847186e-001 2.714234e-002 2.946453e+000 19 14 11
9.415057e-001 6.268627e-001 3.188968e+000 212 238 255
8.804686e-001 6.709103e-002 3.141128e+000 15 14 9
9.921047e-001 4.930301e-001 3.119834e+000 246 243 224
1.041915e+000 3.223269e-001 3.138199e+000 37 40 33
1.038911e+000 4.528945e-001 3.136476e+000 48 51 42
8.701345e-001 -4.613443e-002 3.137537e+000 47 34 23
9.253466e-001 2.928918e-001 3.097935e+000 235 231 204
8.016893e-001 5.419705e-001 3.005302e+000 61 51 28
1.068491e+000 1.175440e-001 3.038574e+000 43 29 16
1.165064e+000 2.632306e-001 3.172450e+000 36 40 26
8.510605e-001 5.758828e-001 3.122053e+000 230 223 195
8.628770e-001 1.826167e-001 3.134591e+000 159 134 103
7.427315e-001 3.170128e-001 2.832736e+000 215 201 172
9.506779e-001 5.517846e-001 3.123813e+000 220 211 182
6.873266e-001 6.677154e-001 3.055558e+000 130 113 92
7.036968e-001 -7.533537e-002 3.001276e+000 251 252 251
7.036968e-001 -7.533537e-002 3.001276e+000 251 252 251
8.578486e-001 1.412394e-001 3.122939e+000 234 229 200
9.628447e-001 2.121125e-001 3.119866e+000 141 109 81
9.628447e-001 2.121125e-001 3.119866e+000 141 109 81
1.181350e+000 2.514489e-001 3.196127e+000 169 168 156
1.251370e+000 2.763573e-001 3.161257e+000 190 182 161
7.533350e-001 3.091886e-001 2.838489e+000 137 127 110
6.724100e-001 2.647081e-001 2.994680e+000 217 196 165
1.176630e+000 3.069012e-001 3.194957e+000 178 180 167
7.743257e-001 4.905407e-001 2.819754e+000 16 13 8
9.494894e-001 4.400090e-001 3.124441e+000 228 221 191
1.008175e+000 5.368897e-001 3.127559e+000 217 211 179
9.324298e-001 5.329113e-001 3.111902e+000 234 227 199
9.324298e-001 5.329113e-001 3.111902e+000 234 227 199
8.068969e-001 -6.532501e-002 3.048653e+000 246 248 235
6.636177e-001 2.017102e-001 2.989728e+000 126 102 64
8.024490e-001 4.695274e-001 2.760090e+000 13 12 7
1.073911e+000 5.930386e-001 3.186303e+000 131 109 76
6.916803e-001 -7.666125e-002 3.002188e+000 112 96 74
8.188294e-001 -4.886307e-002 3.047093e+000 22 24 21
6.253243e-001 -3.421349e-002 3.042723e+000 210 202 183
8.760214e-001 1.324235e-001 2.846264e+000 19 17 4
6.971822e-001 1.218610e-001 2.920283e+000 214 207 178
6.871716e-001 1.276737e-001 2.924165e+000 216 215 187
9.537948e-001 2.587632e-001 3.096653e+000 180 177 160
1.244667e+000 3.331784e-001 3.197326e+000 117 101 76
8.618941e-001 4.971688e-001 3.122775e+000 176 173 162
6.335863e-001 6.663260e-001 3.027750e+000 220 232 225
6.554239e-001 6.733385e-001 3.048159e+000 82 77 59
6.645375e-001 -6.406412e-002 2.990315e+000 222 187 146
1.074829e+000 -5.793057e-002 3.051597e+000 34 28 16
1.072528e+000 1.343773e-001 3.204890e+000 229 220 198
1.083134e+000 1.895263e-001 3.190238e+000 236 224 198
9.434273e-001 2.575380e-001 3.093117e+000 224 222 197
1.042396e+000 4.803537e-001 3.101832e+000 184 183 163
1.159508e+000 5.564454e-001 3.194883e+000 138 112 86
1.227709e+000 5.861301e-001 3.248505e+000 97 92 62
1.025812e+000 5.876376e-001 3.181219e+000 103 91 64
6.815071e-001 -5.117881e-002 2.990304e+000 166 129 107
6.614734e-001 -4.625837e-002 2.987912e+000 28 21 10
8.218146e-001 -4.005858e-002 3.051834e+000 168 135 106
1.046370e+000 1.489148e-001 3.179331e+000 112 107 80
9.678941e-001 2.037887e-001 3.110311e+000 222 212 181
6.657872e-001 2.561984e-001 2.990154e+000 65 45 19
6.657872e-001 2.561984e-001 2.990154e+000 65 45 19
6.851191e-001 6.610580e-001 3.055189e+000 127 113 111
6.036767e-001 -8.733944e-002 3.048364e+000 26 15 2
6.110104e-001 -8.343155e-002 3.049035e+000 189 177 161
6.019750e-001 -8.343833e-002 3.049611e+000 196 178 164
6.149293e-001 -4.348231e-002 3.038351e+000 118 115 96
6.228447e-001 -3.032213e-002 3.044453e+000 97 79 65
6.228447e-001 -3.032213e-002 3.044453e+000 97 79 65
1.047399e+000 1.627194e-001 3.180761e+000 231 226 197
1.087777e+000 1.930133e-001 3.188966e+000 150 130 97
7.639866e-001 2.407055e-001 3.039858e+000 243 236 207
9.501664e-001 2.524446e-001 3.101051e+000 119 107 84
9.501664e-001 2.524446e-001 3.101051e+000 119 107 84
8.185369e-001 5.980527e-001 3.108486e+000 213 222 191
8.435971e-001 6.175784e-001 3.119596e+000 248 243 214
8.247653e-001 -7.833822e-002 3.101130e+000 66 67 52
7.996152e-001 -6.711805e-002 3.052285e+000 253 239 231
7.996152e-001 -6.711805e-002 3.052285e+000 253 239 231
1.055214e+000 -7.186428e-002 3.182983e+000 253 252 240
6.714966e-001 -4.649116e-002 2.988943e+000 132 113 101
6.170231e-001 -3.247824e-002 3.050221e+000 178 171 152
8.282414e-001 -3.262706e-002 3.046531e+000 172 169 170
6.099698e-001 -3.112010e-002 3.054119e+000 92 84 65
1.042418e+000 -8.418910e-004 2.826478e+000 84 68 53
5.992821e-001 1.241277e-001 3.021402e+000 194 188 162
1.186895e+000 2.027692e-001 3.180621e+000 121 104 73
1.045143e+000 2.334744e-001 3.179162e+000 233 226 198
8.231478e-001 2.407710e-001 3.058830e+000 166 154 128
7.017555e-001 2.668864e-001 3.007184e+000 62 45 23
1.162993e+000 2.934788e-001 3.190001e+000 219 218 188
1.248247e+000 3.338715e-001 3.166253e+000 125 106 89
7.413935e-001 5.617822e-001 3.036427e+000 127 108 78
1.028665e+000 5.910597e-001 3.179434e+000 81 75 45
6.624691e-001 5.044323e-002 1.866812e+000 0 255 0
6.607785e-001 4.438174e-002 1.817209e+000 255 255 0
8.103631e-001 6.062597e-002 1.814335e+000 255 0 0
8.114406e-001 5.350998e-002 1.764856e+000 255 255 0
9.958487e-001 6.086744e-002 1.794506e+000 0 255 0
1.005050e+000 5.406314e-002 1.745833e+000 255 255 0
5.056033e-001 3.220884e-002 1.932564e+000 255 0 0
4.975231e-001 2.424122e-002 1.883869e+000 255 255 0
-3.552964e+000 -1.864776e+000 1.330269e+001 0 255 0
-3.533827e+000 -1.855455e+000 1.325745e+001 255 255 0
6.147102e-001 2.376660e-001 2.943504e+000 255 0 0
6.441220e-001 2.408526e-001 2.903195e+000 255 255 0
-2.065613e-002 -5.502058e-002 3.914772e+000 0 255 0
1.421218e-002 -4.249504e-002 3.881196e+000 255 255 0
9.620426e-002 -6.106248e-002 3.989419e+000 255 0 0
1.278731e-001 -4.820981e-002 3.952924e+000 255 255 0
2.234394e-001 3.309868e-002 2.159154e+000 0 255 0
2.050575e-001 2.444891e-002 2.113468e+000 255 255 0
2.342134e-001 -5.440923e-002 4.009011e+000 255 0 0
2.619890e-001 -4.146328e-002 3.969502e+000 255 255 0
3.687028e-001 -5.172070e-002 4.026384e+000 0 255 0
3.928749e-001 -3.871881e-002 3.984591e+000 255 255 0
5.029418e-001 -5.453899e-002 4.039819e+000 255 0 0
5.219592e-001 -4.136531e-002 3.995493e+000 255 255 0
