ply
format ascii 1.0
element face 0
property list uchar int vertex_indices
element vertex 283
property float x
property float y
property float z
property uchar diffuse_red
property uchar diffuse_green
property uchar diffuse_blue
end_header
1.141466e+000 -2.330582e-001 2.619330e+000 175 175 175
1.272787e+000 -9.446863e-003 2.507103e+000 185 185 185
3.800920e-002 8.776122e-001 2.134861e+000 255 255 255
1.263667e+000 -4.899876e-002 2.494779e+000 187 187 187
1.272787e+000 -9.446863e-003 2.507103e+000 185 185 185
1.295680e+000 2.466824e-001 2.606226e+000 132 132 132
7.329502e-001 4.614773e-001 2.470835e+000 193 193 193
4.010676e-001 5.966207e-001 2.464675e+000 47 47 47
4.105005e-002 8.909014e-001 2.139663e+000 31 31 31
4.207093e-002 8.919154e-001 2.138472e+000 31 31 31
4.105005e-002 8.909014e-001 2.139663e+000 31 31 31
2.100174e-002 9.259130e-001 2.170917e+000 216 216 216
5.087944e-002 5.224341e-001 2.125058e+000 24 24 24
8.118538e-001 4.698126e-001 2.418920e+000 130 130 130
7.884866e-001 4.817325e-001 2.444534e+000 17 17 17
7.466789e-001 6.864540e-001 2.567829e+000 59 59 59
5.533803e-001 8.016862e-001 2.648129e+000 62 62 62
1.352121e+000 -1.086079e-002 2.330354e+000 174 174 174
7.709973e-001 6.420276e-001 2.513353e+000 75 75 75
3.768064e-001 6.378421e-001 2.475024e+000 109 109 109
3.768064e-001 6.378421e-001 2.475024e+000 109 109 109
7.129182e-001 6.660536e-001 2.541874e+000 32 32 32
1.688276e-001 8.465243e-001 2.159260e+000 76 76 76
5.272632e-001 8.331684e-001 2.666968e+000 160 160 160
7.505085e-001 -2.196956e+000 4.293866e+000 29 29 29
1.434075e+000 3.301045e-001 2.326797e+000 189 189 189
1.434075e+000 3.301045e-001 2.326797e+000 189 189 189
1.279672e+000 2.039122e-001 2.619251e+000 183 183 183
7.106253e-001 4.745561e-001 2.504709e+000 67 67 67
8.024755e-001 6.906928e-001 2.584853e+000 19 19 19
4.266439e-001 7.032956e-001 2.478594e+000 48 48 48
5.890872e-003 8.686733e-001 2.131584e+000 219 219 219
4.413465e-001 7.239607e-001 2.502485e+000 200 200 200
1.147021e+000 -1.842436e-001 2.633967e+000 173 173 173
7.730660e-001 4.433424e-001 2.443883e+000 33 33 33
8.909276e-001 5.045661e-001 2.448024e+000 48 48 48
8.382223e-001 4.944829e-001 2.463705e+000 123 123 123
6.693179e-001 4.935739e-001 2.500850e+000 30 30 30
7.468801e-001 6.813175e-001 2.554298e+000 29 29 29
3.122270e-002 9.831630e-001 2.184749e+000 181 181 181
1.660698e-002 9.815984e-001 2.183398e+000 188 188 188
5.388546e-001 8.511268e-001 2.676808e+000 68 68 68
1.468184e+000 -1.628223e+000 3.225032e+000 116 116 116
1.468184e+000 -1.628223e+000 3.225032e+000 116 116 116
1.050496e+000 -1.929494e+000 4.126528e+000 107 107 107
1.844930e-001 8.442001e-001 2.141082e+000 85 85 85
1.442951e-001 9.260591e-001 2.171157e+000 114 114 114
1.082307e-001 9.512729e-001 2.177278e+000 195 195 195
2.163769e-002 9.731924e-001 2.173992e+000 125 125 125
1.061900e+000 9.573090e-001 2.760140e+000 36 36 36
1.417780e+000 -1.787219e+000 3.237024e+000 114 114 114
1.192723e+000 -1.997073e+000 3.695747e+000 110 110 110
1.192723e+000 -1.997073e+000 3.695747e+000 110 110 110
1.176071e+000 -1.769754e+000 3.853809e+000 127 127 127
1.265348e+000 -1.244078e-002 2.524008e+000 137 137 137
1.265348e+000 -1.244078e-002 2.524008e+000 137 137 137
1.277980e+000 3.628957e-002 2.523697e+000 185 185 185
1.436513e+000 3.047200e-001 2.312470e+000 213 213 213
1.295628e+000 1.524058e-001 2.566256e+000 198 198 198
7.751743e-001 4.552066e-001 2.455498e+000 162 162 162
7.751743e-001 4.552066e-001 2.455498e+000 162 162 162
2.187361e-001 7.293641e-001 2.080967e+000 119 119 119
2.148044e-001 7.936296e-001 2.104475e+000 117 117 117
5.080813e-001 7.850046e-001 2.622423e+000 62 62 62
3.920612e-002 9.728506e-001 2.178241e+000 115 115 115
1.438516e+000 -1.773461e+000 3.200049e+000 111 111 111
1.322750e+000 -1.977061e+000 3.371157e+000 120 120 120
1.369731e+000 -1.811986e+000 3.354848e+000 117 117 117
1.227145e+000 -2.039133e+000 3.576022e+000 117 117 117
1.334338e+000 -1.792377e+000 3.426599e+000 121 121 121
1.245380e+000 -1.828422e+000 3.630533e+000 111 111 111
1.233001e+000 -1.819956e+000 3.646711e+000 53 53 53
1.140531e+000 -2.210697e-001 2.629214e+000 15 15 15
1.147160e+000 -2.009917e-001 2.619463e+000 177 177 177
1.281013e+000 4.032170e-003 2.495608e+000 138 138 138
1.426935e+000 2.789443e-001 2.323563e+000 211 211 211
1.438132e+000 3.394062e-001 2.324497e+000 202 202 202
1.279060e+000 9.784967e-002 2.558892e+000 137 137 137
1.439321e+000 3.398224e-001 2.340591e+000 119 119 119
1.303388e+000 1.778587e-001 2.555642e+000 134 134 134
1.290938e+000 1.950690e-001 2.590914e+000 126 126 126
1.018243e+000 9.032149e-001 2.587287e+000 112 112 112
5.277039e-001 8.652769e-001 2.696788e+000 162 162 162
7.545294e-001 9.804535e-001 2.864113e+000 145 145 145
1.514379e+000 -1.535373e+000 3.107961e+000 109 109 109
1.266341e+000 -1.708076e+000 3.635287e+000 108 108 108
1.126106e+000 -2.301200e-001 2.622524e+000 186 186 186
1.428058e+000 2.968802e-001 2.313930e+000 117 117 117
1.427381e+000 3.212428e-001 2.314464e+000 131 131 131
1.442060e+000 3.742320e-001 2.337606e+000 134 134 134
7.349122e-001 4.387979e-001 2.441187e+000 33 33 33
3.570427e-001 7.089821e-001 2.474698e+000 135 135 135
5.443587e-001 7.830166e-001 2.628397e+000 184 184 184
1.476671e+000 -1.547933e+000 3.167620e+000 36 36 36
1.218661e+000 -1.716876e+000 3.756229e+000 108 108 108
1.098015e+000 -1.872180e+000 3.970139e+000 118 118 118
1.017835e+000 -2.029568e+000 4.128208e+000 116 116 116
1.449443e+000 2.782873e-001 2.256314e+000 105 105 105
2.721434e-001 7.391552e-001 2.417575e+000 21 21 21
2.721434e-001 7.391552e-001 2.417575e+000 21 21 21
1.159317e+000 5.584585e-001 2.918761e+000 152 152 152
3.437165e-001 5.754124e-001 2.459884e+000 237 237 237
5.604414e-001 8.517998e-001 2.811143e+000 7 7 7
9.227909e-001 5.315979e-001 2.494135e+000 144 144 144
9.519964e-001 5.366626e-001 2.576033e+000 25 25 25
1.135005e+000 -2.106475e-001 2.605297e+000 178 178 178
3.479347e-001 5.087013e-001 2.473849e+000 83 83 83
7.421481e-001 6.598782e-001 2.519203e+000 212 212 212
7.431096e-001 6.612384e-001 2.518307e+000 212 212 212
2.864221e-001 -2.663258e+000 4.268358e+000 10 10 10
8.626555e-001 5.044228e-001 2.469433e+000 143 143 143
3.247525e-001 7.396031e-001 2.502830e+000 84 84 84
-1.085818e+000 -1.007636e-001 5.462390e+000 32 32 32
4.667446e-001 -3.609744e+000 4.461061e+000 44 44 44
1.384603e+000 -1.598641e+000 3.373561e+000 66 66 66
1.316330e+000 -8.776520e-001 2.902232e+000 176 176 176
3.477697e-001 -2.596073e+000 4.310034e+000 85 85 85
2.082693e-001 8.150031e-001 2.113382e+000 112 112 112
1.624614e-001 8.657303e-001 2.163336e+000 199 199 199
3.497254e-001 7.515567e-001 2.539057e+000 33 33 33
1.310316e+000 -2.128537e+000 3.412390e+000 38 38 38
1.392877e+000 -1.760439e+000 3.273809e+000 40 40 40
1.059583e+000 -1.843325e+000 4.102479e+000 51 51 51
1.708636e-001 8.429394e-001 2.132501e+000 184 184 184
5.085661e-001 7.223637e-001 2.503105e+000 103 103 103
6.045478e-002 9.828251e-001 2.179856e+000 183 183 183
-9.880881e-004 9.900284e-001 2.184840e+000 114 114 114
1.061224e+000 9.584916e-001 2.756699e+000 36 36 36
-6.646860e-001 1.710477e-001 5.123057e+000 65 65 65
5.850033e-001 9.681648e-001 2.918401e+000 19 19 19
5.850033e-001 9.681648e-001 2.918401e+000 19 19 19
1.326228e+000 -1.941294e+000 3.420504e+000 99 99 99
9.197716e-001 -2.617666e+000 4.043559e+000 7 7 7
9.197716e-001 -2.617666e+000 4.043559e+000 7 7 7
1.403700e+000 -1.606388e+000 3.304301e+000 47 47 47
1.403700e+000 -1.606388e+000 3.304301e+000 47 47 47
1.308857e+000 -1.819441e+000 3.496743e+000 59 59 59
1.308857e+000 -1.819441e+000 3.496743e+000 59 59 59
8.535626e-001 -2.300778e+000 4.292282e+000 39 39 39
1.014930e+000 -1.908364e+000 4.087235e+000 40 40 40
1.143257e+000 -1.706943e-001 2.622038e+000 173 173 173
1.427508e+000 2.935638e-001 2.299419e+000 206 206 206
1.886231e-001 6.419981e-001 2.077853e+000 196 196 196
1.304463e+000 3.226873e-001 2.628379e+000 142 142 142
2.274877e-001 7.159472e-001 2.089666e+000 204 204 204
2.278135e-001 7.594837e-001 2.105806e+000 185 185 185
1.203561e+000 3.542508e-001 2.861941e+000 113 113 113
2.311632e-001 8.558115e-001 2.179909e+000 110 110 110
3.382980e-001 7.105228e-001 2.484837e+000 32 32 32
1.553909e-001 9.055565e-001 2.165672e+000 146 146 146
8.572766e-002 9.051144e-001 2.171392e+000 240 240 240
1.441277e-001 9.259869e-001 2.171712e+000 114 114 114
9.317288e-002 9.674240e-001 2.176125e+000 191 191 191
-1.695091e-002 9.727403e-001 2.173738e+000 192 192 192
9.928036e-001 9.626777e-001 2.657272e+000 131 131 131
4.710033e-001 9.134652e-001 2.775038e+000 76 76 76
1.002414e+000 9.606645e-001 2.717002e+000 52 52 52
1.468512e+000 -1.648708e+000 3.164363e+000 42 42 42
9.323740e-001 -2.646767e+000 4.023221e+000 75 75 75
1.394166e+000 -1.614530e+000 3.339305e+000 99 99 99
9.200684e-001 -2.489684e+000 4.100706e+000 97 97 97
8.774141e-001 -2.401937e+000 4.220532e+000 50 50 50
1.273822e+000 -9.772621e-001 3.027203e+000 90 90 90
1.196046e+000 -1.668983e+000 3.814352e+000 121 121 121
9.999122e-001 -1.920192e+000 4.166795e+000 47 47 47
1.140207e+000 -2.284027e-001 2.615290e+000 175 175 175
1.256322e+000 -1.601874e-003 2.536499e+000 184 184 184
1.273476e+000 4.912988e-002 2.539404e+000 160 160 160
1.435661e+000 3.720505e-001 2.349739e+000 205 205 205
7.548772e-001 4.327483e-001 2.448398e+000 150 150 150
5.720061e-001 5.129094e-001 2.507966e+000 35 35 35
1.227459e+000 3.515178e-001 2.840494e+000 142 142 142
4.995936e-001 7.596554e-001 2.484996e+000 199 199 199
-2.762168e-002 9.786782e-001 2.184557e+000 85 85 85
1.482386e-002 9.921346e-001 2.190744e+000 115 115 115
9.764037e-001 1.004231e+000 2.814928e+000 75 75 75
7.444897e-001 9.834681e-001 2.888382e+000 62 62 62
1.277147e+000 -2.088979e+000 3.409640e+000 104 104 104
1.399934e+000 -1.817142e+000 3.242713e+000 56 56 56
1.552926e+000 -1.484269e+000 3.034313e+000 46 46 46
1.452854e+000 -1.612718e+000 3.171081e+000 92 92 92
1.126212e+000 -2.225162e+000 3.728616e+000 88 88 88
8.550447e-001 -2.760460e+000 4.129768e+000 34 34 34
1.033855e+000 -2.377527e+000 3.878540e+000 47 47 47
1.212121e+000 -1.905319e+000 3.615205e+000 43 43 43
7.441302e-001 -2.802497e+000 4.366027e+000 76 76 76
6.855943e-001 -2.916147e+000 4.460676e+000 73 73 73
1.198999e+000 -1.834329e+000 3.721545e+000 109 109 109
1.280251e+000 -1.616030e+000 3.559487e+000 110 110 110
1.247559e+000 -1.722173e+000 3.658123e+000 55 55 55
6.428843e-001 -2.726990e+000 4.677469e+000 74 74 74
1.176413e+000 -1.771746e+000 3.855587e+000 127 127 127
9.781689e-001 -2.049766e+000 4.224387e+000 90 90 90
1.142861e+000 -2.318022e-001 2.589976e+000 32 32 32
1.034269e+000 -1.793934e+000 4.132791e+000 51 51 51
8.746786e-001 4.041741e-001 2.291211e+000 94 94 94
1.286741e+000 1.769159e-001 2.612689e+000 187 187 187
1.310516e-002 5.139145e-001 2.121571e+000 207 207 207
1.298678e+000 2.400510e-001 2.614451e+000 132 132 132
5.256800e-001 7.076833e-001 2.499322e+000 49 49 49
4.384307e-001 7.173752e-001 2.477975e+000 42 42 42
5.203101e-001 7.896855e-001 2.625328e+000 183 183 183
5.940264e-001 8.241386e-001 2.659414e+000 139 139 139
-1.339170e+000 1.811539e-001 5.403123e+000 109 109 109
-1.388175e+000 2.115614e-001 5.319037e+000 111 111 111
-1.388175e+000 2.115614e-001 5.319037e+000 111 111 111
1.127516e+000 -2.467837e+000 3.594819e+000 98 98 98
1.250755e+000 -2.179036e+000 3.434815e+000 48 48 48
1.240059e+000 -2.210559e+000 3.459391e+000 99 99 99
1.301148e+000 -2.027121e+000 3.353333e+000 37 37 37
1.254110e+000 -2.120806e+000 3.525676e+000 102 102 102
1.357799e+000 -1.856554e+000 3.358798e+000 45 45 45
1.305724e+000 -1.990969e+000 3.471533e+000 33 33 33
1.466714e+000 -1.526259e+000 3.179304e+000 100 100 100
1.133662e+000 -2.206619e+000 3.685799e+000 38 38 38
1.473535e+000 -1.485119e+000 3.180614e+000 40 40 40
9.995087e-001 -2.472388e+000 3.931897e+000 37 37 37
1.373378e+000 -1.607260e+000 3.347957e+000 31 31 31
1.427236e+000 -1.502715e+000 3.300008e+000 131 131 131
1.268687e+000 -1.790380e+000 3.526367e+000 50 50 50
1.335137e+000 -1.640484e+000 3.454841e+000 112 112 112
1.314836e+000 -1.652997e+000 3.512602e+000 108 108 108
1.153561e+000 -1.934487e+000 3.778471e+000 113 113 113
1.190053e+000 -9.822880e-001 3.181741e+000 166 166 166
9.698727e-001 -2.003278e+000 4.327789e+000 104 104 104
1.276735e+000 -4.406011e-002 2.504376e+000 138 138 138
1.453231e+000 2.665868e-001 2.257219e+000 165 165 165
1.440163e+000 3.162485e-001 2.311108e+000 112 112 112
1.277429e+000 1.712683e-001 2.599052e+000 102 102 102
1.442925e+000 4.163229e-001 2.337697e+000 213 213 213
3.200738e-002 5.572489e-001 2.124219e+000 179 179 179
7.310695e-001 4.196709e-001 2.460651e+000 145 145 145
7.481608e-001 4.438455e-001 2.461839e+000 138 138 138
7.354967e-001 4.513956e-001 2.471795e+000 215 215 215
1.401763e+000 4.997051e-001 2.490427e+000 155 155 155
2.125528e-001 7.202559e-001 2.080758e+000 207 207 207
7.454989e-001 4.799451e-001 2.519421e+000 154 154 154
7.454989e-001 4.799451e-001 2.519421e+000 154 154 154
3.090923e-002 8.093623e-001 2.105532e+000 162 162 162
7.095377e-002 9.209959e-001 2.159420e+000 178 178 178
6.007133e-002 9.310632e-001 2.165565e+000 214 214 214
-1.548944e+000 2.306750e-001 5.331661e+000 68 68 68
-1.451614e+000 2.396242e-001 5.358933e+000 97 97 97
-1.424064e+000 2.835962e-001 5.456518e+000 110 110 110
1.245254e+000 -2.137881e+000 3.500222e+000 85 85 85
1.570390e+000 -1.440471e+000 3.026185e+000 109 109 109
1.219220e+000 -2.149955e+000 3.560872e+000 39 39 39
1.484572e+000 -1.592675e+000 3.159624e+000 126 126 126
1.484572e+000 -1.592675e+000 3.159624e+000 126 126 126
8.059704e-001 -2.975785e+000 4.153249e+000 66 66 66
1.473796e+000 -1.537679e+000 3.159277e+000 36 36 36
1.365174e+000 -1.802579e+000 3.391661e+000 52 52 52
1.480231e+000 -1.490016e+000 3.170586e+000 104 104 104
1.480231e+000 -1.490016e+000 3.170586e+000 104 104 104
1.009885e+000 -2.415676e+000 3.910813e+000 82 82 82
8.327811e-001 -2.603419e+000 4.321618e+000 36 36 36
1.033701e+000 -2.153122e+000 3.973742e+000 43 43 43
9.975074e-001 -2.113834e+000 3.937304e+000 45 45 45
9.145392e-001 -2.330432e+000 4.133634e+000 91 91 91
1.030796e+000 -2.136381e+000 3.978595e+000 91 91 91
1.094814e+000 -1.961656e+000 3.889879e+000 96 96 96
1.259258e+000 -1.617496e+000 3.666514e+000 59 59 59
1.026710e+000 -1.978200e+000 4.077341e+000 60 60 60
1.357876e+000 -1.697351e-003 2.323064e+000 123 123 123
1.031263e+000 -1.897454e+000 4.148859e+000 98 98 98
1.207611e+000 -2.599048e-002 2.637602e+000 69 69 69
1.217534e+000 2.624732e-002 2.664249e+000 136 136 136
1.440907e+000 3.900196e-001 2.351818e+000 221 221 221
1.444307e+000 4.223791e-001 2.347266e+000 136 136 136
7.353957e-001 4.356868e-001 2.424952e+000 119 119 119
7.353957e-001 4.356868e-001 2.424952e+000 119 119 119
2.372433e-001 8.510095e-001 2.169990e+000 164 164 164
1.672910e-001 9.707047e-001 2.240201e+000 146 146 146
5.173751e-002 1.021625e+000 2.241434e+000 180 180 180
-1.457025e+000 1.571591e-001 5.365611e+000 101 101 101
5.968208e-001 1.796313e+000 5.544654e-001 0 255 0
6.013725e-001 1.825421e+000 5.140678e-001 255 255 0
3.433516e-001 2.100904e+000 5.771063e-001 255 0 0
3.450276e-001 2.131804e+000 5.378335e-001 255 255 0
9.142318e-002 1.782744e+000 6.583132e-001 0 255 0
8.457774e-002 1.812402e+000 6.186453e-001 255 255 0
4.085837e-002 2.513895e+000 1.041563e+000 255 0 0
3.227224e-002 2.549703e+000 1.007739e+000 255 255 0
