ply
format ascii 1.0
element face 0
property list uchar int vertex_indices
element vertex 886
property float x
property float y
property float z
property uchar diffuse_red
property uchar diffuse_green
property uchar diffuse_blue
end_header
1.705951e-001 1.374443e+000 -5.877335e+000 210 176 128
4.874720e-001 1.117110e+000 -6.108029e+000 238 204 159
3.646436e-001 1.766372e-001 -6.477458e+000 99 85 67
3.763559e-001 5.227904e-001 -6.408452e+000 76 60 37
3.701261e-001 8.097698e-001 -6.343263e+000 60 53 25
3.469502e-001 6.271777e-001 -6.361970e+000 116 107 82
3.974645e-001 -2.165684e-001 -6.531606e+000 121 148 190
3.492647e-001 -6.899037e-003 -6.510568e+000 87 81 55
4.857185e-001 1.119124e+000 -6.105217e+000 236 200 150
3.901568e-001 -1.076497e-001 -6.558532e+000 133 121 89
4.479206e-001 1.444180e+000 -5.727029e+000 188 171 143
3.804596e-001 1.448408e+000 -5.721623e+000 109 102 82
3.799278e-001 8.062190e-001 -6.350090e+000 153 144 115
3.570172e-001 7.791009e-001 -6.337151e+000 40 30 18
3.810752e-001 1.463792e+000 -5.718597e+000 103 93 68
3.793769e-001 8.182589e-002 -6.509577e+000 62 54 31
3.846307e-001 6.875859e-001 -6.375029e+000 150 136 107
3.837161e-001 5.694675e-001 -6.401953e+000 170 155 124
4.010677e-001 -8.506130e-002 -6.543159e+000 120 106 79
4.624895e-001 7.771083e-002 -6.500842e+000 129 115 89
2.022352e-001 1.463153e+000 -5.752716e+000 125 117 98
3.741021e-001 5.019413e-001 -6.411191e+000 72 55 35
3.665911e-001 8.828557e-001 -6.325214e+000 45 36 27
4.644073e-001 -5.390861e-002 -6.510243e+000 9 8 5
3.728005e-001 7.033581e-001 -6.370246e+000 70 55 34
3.830365e-001 9.214674e-001 -6.326693e+000 148 138 111
3.954777e-001 1.460635e+000 -5.720153e+000 103 96 77
3.848544e-001 4.812824e-001 -6.421286e+000 145 132 101
3.832744e-001 6.186075e-001 -6.392869e+000 160 147 114
3.854332e-001 6.297533e-001 -6.388752e+000 159 148 116
1.664014e-001 1.183622e+000 -1.001949e+001 72 57 24
5.499393e-001 1.463600e+000 -5.836317e+000 247 216 178
3.971293e-001 1.449771e+000 -5.723323e+000 109 94 75
3.426059e-001 6.523461e-001 -6.359566e+000 126 115 90
2.124273e-001 2.377023e-001 -6.395251e+000 19 22 15
3.423152e-001 1.700604e-001 -6.457771e+000 102 91 69
3.669164e-001 6.402394e-001 -6.378200e+000 75 62 45
3.702709e-001 6.033597e-001 -6.386298e+000 82 69 50
2.158070e-001 1.448781e+000 -5.750900e+000 201 187 158
3.494669e-001 5.024864e-001 -6.390709e+000 102 90 68
3.570942e-001 8.217875e-001 -6.334922e+000 116 109 83
4.639163e-001 1.463524e+000 -5.724597e+000 73 60 41
4.035922e-001 7.604048e-001 -6.356880e+000 119 105 78
3.642773e-001 8.309022e-001 -6.338505e+000 65 57 34
3.265668e-001 1.976679e-001 -6.442153e+000 95 82 63
-9.406281e-001 1.463235e-001 -1.036402e+001 159 179 168
3.372054e-001 6.268872e-001 -6.353251e+000 108 100 79
1.854376e+000 1.809094e+000 -1.623487e+001 198 193 187
-7.565259e-001 1.416674e+000 -9.201241e+000 57 26 6
3.093202e-001 -6.529653e-002 -6.479829e+000 99 92 73
-9.036986e-001 2.003308e-001 -1.035242e+001 175 191 199
-1.070907e+000 3.224664e-001 -1.024808e+001 42 43 44
-1.070907e+000 3.224664e-001 -1.024808e+001 42 43 44
3.434273e-001 1.119374e-001 -6.474445e+000 143 133 117
3.056984e-001 2.035022e-001 -6.421576e+000 21 11 0
-7.907878e-001 8.386660e-002 -1.030541e+001 64 49 8
-4.598309e-001 2.771015e-001 -1.035847e+001 165 186 208
4.113492e-001 7.819233e-003 -6.523817e+000 115 102 79
3.486755e-001 -5.136397e-003 -6.502299e+000 87 81 55
2.310681e-001 1.264020e-001 -6.424595e+000 17 17 19
2.256412e-001 1.461584e+000 -5.744013e+000 109 101 80
3.931800e-001 -1.594033e-001 -6.568760e+000 111 99 73
3.181668e-001 1.075323e-001 -6.492433e+000 6 8 8
3.181668e-001 1.075323e-001 -6.492433e+000 6 8 8
3.914096e-001 1.748040e-001 -6.483121e+000 139 123 98
1.118166e-001 1.469197e+000 -5.794777e+000 85 72 55
3.278733e-001 2.895713e-002 -6.482357e+000 15 14 12
3.278733e-001 2.895713e-002 -6.482357e+000 15 14 12
-9.272487e-001 2.226733e-001 -1.035394e+001 158 179 209
2.823171e+000 2.270153e+000 -1.212070e+001 220 184 130
4.390373e-001 -1.668328e-002 -6.504655e+000 130 119 89
3.573044e-002 1.402676e+000 -6.002797e+000 197 168 124
4.958255e-002 1.468985e+000 -5.840340e+000 202 186 153
3.207916e-001 -6.238375e-002 -6.486310e+000 9 5 3
4.720752e-001 -4.203685e-002 -6.508839e+000 131 121 95
3.110652e-001 2.175545e-001 -6.417193e+000 91 78 59
-9.111191e-001 1.013259e-001 -1.032560e+001 171 189 205
-9.175638e-001 1.764761e-001 -1.035909e+001 49 40 21
-1.008459e+000 3.185566e-001 -1.030197e+001 102 84 21
-1.081270e+000 3.520122e-001 -1.024515e+001 171 185 196
2.487844e-001 6.693531e-001 -6.268692e+000 62 49 32
3.823233e-001 7.369709e-001 -6.360682e+000 150 136 109
3.002322e+000 2.264849e+000 -1.237089e+001 245 200 139
3.102507e+000 2.620941e+000 -1.197921e+001 243 222 154
3.144486e+000 2.658264e+000 -1.191798e+001 12 0 0
3.144486e+000 2.658264e+000 -1.191798e+001 12 0 0
3.144486e+000 2.658264e+000 -1.191798e+001 12 0 0
4.071135e-001 -1.501238e-001 -6.552472e+000 115 103 76
3.054427e-001 2.578984e-001 -6.421428e+000 105 95 69
3.083252e+000 1.093848e+000 -1.053073e+001 106 88 49
1.515816e-001 1.102586e+000 -6.377714e+000 227 200 147
1.726370e-001 1.111820e+000 -6.365222e+000 233 206 160
3.126475e+000 2.361514e+000 -1.202051e+001 173 117 54
2.826589e+000 2.400716e+000 -1.206969e+001 226 177 108
3.056509e+000 2.690965e+000 -1.184665e+001 255 235 179
4.067318e-001 1.450313e+000 -5.721456e+000 116 106 85
3.836444e-001 -2.047130e-001 -6.567606e+000 124 150 179
3.058571e-001 -1.308302e-001 -6.493421e+000 102 95 76
3.348151e-001 9.816436e-002 -6.459661e+000 109 93 77
2.370821e-001 4.494239e-001 -6.301986e+000 86 86 76
2.304057e-001 4.583443e-001 -6.300937e+000 132 123 98
3.843924e-001 4.977862e-001 -6.414023e+000 148 133 102
-9.992032e-001 1.911861e-001 -1.029163e+001 161 174 197
-1.078728e+000 3.832843e-001 -1.024070e+001 65 42 16
1.835632e-001 1.175793e+000 -1.010707e+001 213 211 194
3.011303e+000 2.240237e+000 -1.243719e+001 57 18 3
5.470571e-001 1.136967e+000 -6.147992e+000 200 175 139
2.780919e+000 2.327467e+000 -1.201473e+001 106 61 28
3.167836e+000 2.402269e+000 -1.203019e+001 97 50 21
2.716719e+000 2.431648e+000 -1.218095e+001 216 167 108
3.137178e+000 2.425532e+000 -1.205690e+001 230 179 122
5.466247e-001 1.164731e+000 -6.142993e+000 206 177 143
3.105734e+000 2.736705e+000 -1.191919e+001 39 15 0
3.105734e+000 2.736705e+000 -1.191919e+001 39 15 0
3.340076e-001 -1.505842e-001 -6.511063e+000 80 77 59
2.165137e-001 2.106545e-001 -6.348659e+000 145 131 105
3.082025e-001 3.469931e-001 -6.394208e+000 154 143 113
3.076876e-001 3.602937e-001 -6.387873e+000 163 149 120
-7.432425e-001 -4.188689e-002 -1.037123e+001 69 61 41
3.378518e-001 4.654990e-001 -6.384668e+000 60 49 27
-9.406158e-001 1.251339e-001 -1.036537e+001 49 61 55
-9.406158e-001 1.251339e-001 -1.036537e+001 49 61 55
3.765381e-001 5.109658e-001 -6.412416e+000 84 68 45
-9.118328e-001 1.503539e-001 -1.035256e+001 178 178 180
-9.119693e-001 4.157969e-001 -1.010750e+001 71 65 32
3.815169e-001 6.422041e-001 -6.383484e+000 143 131 104
4.097146e-001 8.085709e-001 -6.337108e+000 88 74 47
-7.333529e-001 9.284308e-001 -1.018254e+001 72 59 55
1.175904e+001 3.009728e+000 -3.714279e+001 253 251 216
1.051171e-001 1.164769e+000 -1.015123e+001 180 158 89
1.885150e+000 1.742908e+000 -1.625844e+001 66 56 44
1.716821e-001 1.219487e+000 -1.008546e+001 57 48 32
1.155371e+001 4.191987e+000 -3.699545e+001 210 199 178
1.033382e+001 4.759274e+000 -3.776639e+001 250 245 220
4.529520e-001 1.083428e+000 -6.113905e+000 235 211 171
3.030851e+000 2.225418e+000 -1.238298e+001 73 31 5
3.030851e+000 2.225418e+000 -1.238298e+001 73 31 5
3.071697e+000 2.232387e+000 -1.225584e+001 250 202 153
-1.014153e+000 2.926867e+000 -1.436412e+001 40 21 1
3.043049e+000 2.509381e+000 -1.188104e+001 74 29 2
3.217027e+000 2.519354e+000 -1.159472e+001 36 43 46
3.217027e+000 2.519354e+000 -1.159472e+001 36 43 46
3.168882e+000 2.599252e+000 -1.180253e+001 245 205 149
3.121695e+000 2.641418e+000 -1.190121e+001 33 9 1
3.181119e+000 2.687988e+000 -1.180931e+001 247 203 139
2.790564e+000 2.543575e+000 -1.057039e+001 156 142 115
-4.828166e-002 1.493870e+000 -5.955920e+000 210 196 161
4.145916e-001 1.456418e+000 -5.797016e+000 152 121 75
3.854948e-001 1.444988e+000 -5.729205e+000 205 187 156
2.565611e-001 1.452305e+000 -5.739832e+000 98 86 63
3.856965e-001 -1.906962e-001 -6.568392e+000 120 113 89
3.133186e-001 -6.531051e-002 -6.473520e+000 12 5 1
3.221070e-001 3.174069e-001 -6.405464e+000 120 107 88
3.504757e-001 3.432152e-001 -6.425170e+000 112 100 76
-7.728385e-001 3.572608e-002 -1.032532e+001 171 181 171
3.841448e-001 5.307728e-001 -6.403901e+000 157 141 114
-8.983069e-001 3.439309e-001 -1.018375e+001 179 178 171
3.785908e-001 6.012069e-001 -6.392152e+000 75 60 37
-7.354971e-001 9.478338e-001 -1.018705e+001 62 51 45
1.901398e+000 1.792300e+000 -1.632561e+001 54 47 41
8.604462e+000 4.219702e+000 -3.119327e+001 252 246 207
1.687669e-001 1.081087e+000 -6.371847e+000 59 39 6
1.610501e-001 1.088933e+000 -6.368895e+000 254 233 181
3.018856e+000 2.149260e+000 -1.232820e+001 245 180 123
3.083012e-001 1.088348e+000 -6.086452e+000 138 106 67
3.031349e+000 2.298263e+000 -1.243238e+001 252 225 177
3.058059e+000 2.349121e+000 -1.217854e+001 94 55 18
3.051329e+000 2.491590e+000 -1.187984e+001 218 170 124
3.090193e+000 2.652678e+000 -1.202560e+001 45 9 0
3.153890e+000 2.630878e+000 -1.186389e+001 53 20 0
3.206574e+000 2.613425e+000 -1.176902e+001 59 24 2
-2.087467e-001 2.408761e+000 -1.027356e+001 145 112 86
-7.059156e-003 1.407072e+000 -6.058267e+000 242 218 181
3.941886e-002 1.393380e+000 -5.990006e+000 238 209 165
4.142970e-001 1.459295e+000 -5.795031e+000 213 188 147
1.332410e-001 1.463364e+000 -5.783569e+000 105 93 71
3.748547e-001 1.451855e+000 -5.722747e+000 107 102 84
2.017270e-001 1.462863e+000 -5.752384e+000 127 119 100
5.287186e-001 5.289164e-001 -6.317063e+000 21 20 24
-9.796883e-001 1.858105e-001 -1.029411e+001 79 68 28
3.447481e-001 6.380828e-001 -6.356318e+000 106 101 85
-2.994866e-001 5.173961e-001 -1.060758e+001 76 73 66
3.802433e-001 7.122904e-001 -6.368276e+000 154 140 114
3.363524e-001 7.199421e-001 -6.346922e+000 87 76 46
3.287325e-001 7.345731e-001 -6.356261e+000 113 105 86
3.023888e-001 9.962259e-001 -6.245104e+000 71 64 54
-8.099962e-001 1.455915e+000 -9.028899e+000 36 21 0
1.620648e-001 1.108582e+000 -6.189305e+000 120 95 58
2.708310e+000 2.313721e+000 -1.209426e+001 198 154 90
-1.225815e+000 2.944614e+000 -1.436830e+001 116 94 70
3.046254e+000 2.627273e+000 -1.197746e+001 235 195 149
5.537871e-001 3.568312e-001 -6.467971e+000 154 178 206
2.859519e-001 3.080784e-003 -6.484389e+000 16 15 13
1.095319e+001 1.008361e+000 -3.769264e+001 218 139 135
8.401103e+000 1.208431e+000 -3.843533e+001 202 145 147
8.613016e+000 3.423676e+000 -3.936136e+001 252 252 251
3.661243e-001 6.323535e-002 -6.514166e+000 67 59 41
5.578568e-001 1.396901e-001 -6.476660e+000 15 15 17
1.233266e+001 1.839028e+000 -3.675951e+001 156 149 134
9.752788e+000 2.030749e+000 -3.800182e+001 160 157 138
7.742099e+000 2.387609e+000 -3.805139e+001 172 174 171
1.051963e+001 2.917091e+000 -3.786142e+001 195 187 166
1.051687e+001 2.916374e+000 -3.784974e+001 195 187 166
9.889893e+000 4.485614e+000 -3.704946e+001 187 179 158
9.938514e+000 4.670122e+000 -3.856669e+001 171 163 142
9.938514e+000 4.670122e+000 -3.856669e+001 171 163 142
4.334784e-001 1.123645e+000 -6.092162e+000 245 218 164
4.502510e-001 -1.317974e-001 -6.539957e+000 13 9 10
4.520522e-001 -1.311670e-001 -6.540613e+000 13 9 10
5.026642e-001 2.989025e-002 -6.565950e+000 129 159 196
3.660623e-001 6.792339e-001 -6.370652e+000 67 58 41
3.617565e-001 7.439090e-001 -6.361767e+000 75 67 46
1.306333e+001 1.318867e+000 -3.688949e+001 254 255 253
8.482218e+000 2.630255e+000 -3.941085e+001 251 255 253
9.631807e+000 4.107597e+000 -3.710592e+001 255 253 254
2.651098e+000 2.317200e+000 -1.215816e+001 240 191 128
3.264843e-001 -1.374202e-001 -6.512279e+000 7 7 10
3.688482e-001 1.463329e-001 -6.490062e+000 46 37 18
8.330337e+000 1.685867e+000 -3.901842e+001 254 255 250
9.357351e+000 1.873311e+000 -3.777848e+001 223 211 188
1.104227e+001 3.781406e+000 -3.694095e+001 193 207 211
2.836562e-001 1.079671e+000 -6.215103e+000 32 25 17
2.271446e+000 2.412502e+000 -1.234494e+001 215 177 126
5.283892e-001 1.162642e+000 -6.125295e+000 172 140 99
6.078295e-001 1.380014e+000 -5.888395e+000 156 124 85
3.743613e-001 -1.960085e-001 -6.571017e+000 57 50 43
3.900159e-001 -1.572010e-001 -6.571862e+000 114 102 75
4.632551e-001 -5.213253e-002 -6.507570e+000 9 8 5
4.561374e-001 5.247147e-002 -6.512885e+000 126 114 90
2.330364e-001 1.103975e-001 -6.402793e+000 114 99 73
3.257789e-001 4.959316e-001 -6.384519e+000 77 67 48
-1.167517e+000 3.246031e-001 -1.019773e+001 123 109 43
1.113121e+001 7.587881e-001 -3.763126e+001 248 139 127
1.113121e+001 7.587881e-001 -3.763126e+001 248 139 127
1.151092e+001 3.508641e+000 -3.698840e+001 181 168 145
6.009978e+000 2.144838e+000 -2.082925e+001 181 168 145
9.923406e+000 3.810197e+000 -3.657535e+001 208 219 224
8.294278e+000 4.293074e+000 -3.849709e+001 254 255 250
4.132688e-001 1.016557e+000 -6.075776e+000 217 200 149
2.668264e+000 2.470015e+000 -1.218253e+001 34 16 13
3.879176e-001 -1.528758e-001 -6.567804e+000 119 109 82
4.401063e-001 -1.983024e-002 -6.512527e+000 128 117 89
4.538016e-001 5.315002e-001 -6.454446e+000 170 185 197
3.438829e-001 6.588607e-001 -6.361126e+000 117 104 70
1.351677e+001 1.105868e+000 -3.761142e+001 170 144 130
1.151741e+001 1.882038e+000 -3.733850e+001 157 151 136
1.291722e+001 2.066199e+000 -3.753993e+001 217 213 188
1.145294e+001 2.164193e+000 -3.805658e+001 210 204 179
1.110341e+001 2.181267e+000 -3.805587e+001 213 212 182
8.620597e+000 2.910798e+000 -3.787459e+001 252 255 234
8.865999e+000 2.939610e+000 -3.810247e+001 206 197 175
8.865999e+000 2.939610e+000 -3.810247e+001 206 197 175
8.623369e+000 4.179298e+000 -3.957471e+001 198 192 165
1.247949e+001 4.653625e+000 -3.854650e+001 192 175 151
4.137088e-001 1.028431e+000 -6.075906e+000 152 133 90
4.300743e-001 1.049861e+000 -6.078399e+000 68 55 38
4.101047e-001 1.067886e+000 -6.076730e+000 54 38 23
2.162770e+000 2.340986e+000 -1.244026e+001 53 27 14
2.162770e+000 2.340986e+000 -1.244026e+001 53 27 14
2.161097e+000 2.340268e+000 -1.243570e+001 53 27 14
2.461975e+000 2.331296e+000 -1.223126e+001 246 203 134
2.289911e+000 2.403191e+000 -1.232133e+001 215 165 106
2.294851e+000 2.449558e+000 -1.228116e+001 82 47 32
2.304253e+000 2.458155e+000 -1.232703e+001 82 47 32
2.208417e+000 2.513139e+000 -1.229693e+001 95 47 16
2.208417e+000 2.513139e+000 -1.229693e+001 95 47 16
2.152250e+000 2.581467e+000 -1.231359e+001 46 27 33
2.152250e+000 2.581467e+000 -1.231359e+001 46 27 33
-2.367160e+000 2.703131e+000 -1.277578e+001 62 52 27
1.835866e-001 1.372305e+000 -5.871069e+000 218 186 139
7.503396e-001 1.494351e+000 -5.890140e+000 141 133 110
3.880184e-001 -1.616899e-002 -6.535470e+000 133 122 94
4.586082e-001 5.015099e-002 -6.513233e+000 117 105 86
-8.906412e-001 1.330989e-001 -1.033194e+001 64 51 26
-9.665306e-001 1.885290e-001 -1.028649e+001 66 47 4
-1.400123e+000 4.574372e-001 -9.631504e+000 83 65 30
3.713417e-001 7.499993e-001 -6.358479e+000 92 80 56
1.053177e+001 1.271227e+000 -3.716784e+001 179 100 92
1.004304e+001 1.353263e+000 -3.914659e+001 242 117 116
9.372709e+000 1.355543e+000 -3.768103e+001 192 104 98
9.589384e+000 2.261255e+000 -3.814485e+001 221 214 195
1.068006e+001 2.786828e+000 -3.759529e+001 168 158 136
1.068059e+001 2.791103e+000 -3.759979e+001 168 158 136
8.150700e+000 2.959979e+000 -3.898110e+001 210 191 166
1.068147e+001 3.106727e+000 -3.754602e+001 205 194 176
1.042605e+001 3.110050e+000 -3.741309e+001 200 189 171
8.628334e+000 3.781662e+000 -3.851091e+001 205 194 167
8.371292e+000 4.349796e+000 -3.731584e+001 225 223 196
8.872377e+000 4.492437e+000 -3.786647e+001 215 195 169
1.254493e+001 4.449175e+000 -3.682771e+001 155 147 135
8.986640e+000 5.356869e+000 -3.812028e+001 200 181 150
4.856882e-001 1.089802e+000 -6.093835e+000 121 94 55
2.227428e+000 2.378021e+000 -1.238572e+001 164 102 41
3.049419e+000 2.325228e+000 -1.205835e+001 235 187 125
2.103785e+000 2.404964e+000 -1.236258e+001 97 52 11
2.131647e+000 2.468812e+000 -1.241074e+001 246 196 137
3.051884e+000 2.415165e+000 -1.207584e+001 36 6 0
2.429387e+000 2.462098e+000 -1.223781e+001 228 180 105
2.101080e+000 2.528864e+000 -1.231280e+001 22 9 4
2.098725e+000 2.525862e+000 -1.229985e+001 22 9 4
-1.376724e+000 2.204314e+000 -9.533141e+000 66 54 32
-1.052246e+000 2.352270e+000 -9.780369e+000 13 11 22
6.249851e-001 1.478349e+000 -5.793179e+000 72 64 43
3.617919e-001 1.461962e+000 -5.721155e+000 101 90 68
3.674729e-001 -1.599044e-001 -6.562847e+000 55 51 39
3.771786e-001 1.707790e-001 -6.492516e+000 66 51 30
3.244358e-001 3.893508e-001 -6.399985e+000 67 60 41
2.762633e-001 4.607086e-001 -6.335298e+000 104 93 72
2.762633e-001 4.607086e-001 -6.335298e+000 104 93 72
5.119965e-001 5.044984e-001 -6.376493e+000 115 106 78
3.861465e-001 5.535754e-001 -6.406325e+000 153 138 107
3.340942e-001 6.142423e-001 -6.354863e+000 59 47 23
-1.002405e+000 5.493558e-001 -9.616043e+000 42 46 31
3.407951e-001 6.717478e-001 -6.357096e+000 121 112 79
3.811771e-001 6.989897e-001 -6.375532e+000 148 134 108
1.080099e+001 7.036858e-001 -3.691562e+001 249 117 124
9.809806e+000 8.036677e-001 -3.819200e+001 211 111 115
9.568595e+000 8.125894e-001 -3.732437e+001 211 111 115
1.324497e+001 9.319848e-001 -3.687644e+001 253 240 215
9.825679e+000 9.128560e-001 -3.755545e+001 229 120 130
1.160651e+001 2.171118e+000 -3.755469e+001 218 213 190
3.831646e-001 8.488123e-001 -6.339431e+000 134 129 97
9.872242e+000 2.864915e+000 -3.818239e+001 188 175 150
-6.735634e-002 1.109697e+000 -1.054243e+001 59 55 39
8.344920e+000 2.932463e+000 -3.840533e+001 211 198 171
8.187245e+000 2.935306e+000 -3.823733e+001 206 199 173
1.307526e+001 3.729853e+000 -3.652706e+001 248 254 248
9.240501e+000 3.946439e+000 -3.781228e+001 206 212 210
9.966788e+000 3.995605e+000 -3.771005e+001 194 206 215
1.148905e+001 4.244091e+000 -3.730965e+001 235 209 189
1.222083e+001 4.278125e+000 -3.694232e+001 253 239 210
1.134769e+001 4.258693e+000 -3.657891e+001 255 242 221
1.244155e+001 4.464124e+000 -3.711584e+001 177 158 135
1.217088e+001 4.460499e+000 -3.698924e+001 201 180 157
1.147901e+001 4.561481e+000 -3.768564e+001 189 164 141
1.082409e+001 4.722169e+000 -3.886490e+001 192 165 149
9.892280e+000 4.814112e+000 -3.790422e+001 195 181 163
2.408550e+000 2.303013e+000 -1.229894e+001 252 213 154
2.071889e+000 2.312113e+000 -1.237199e+001 100 49 11
3.030463e+000 2.335917e+000 -1.212284e+001 79 36 3
2.288312e+000 2.427535e+000 -1.248023e+001 249 205 149
2.379868e+000 2.390041e+000 -1.228021e+001 254 198 136
2.467185e+000 2.395019e+000 -1.223138e+001 255 227 159
2.785774e+000 2.382484e+000 -1.209466e+001 230 181 119
2.070404e+000 2.449237e+000 -1.227928e+001 238 183 122
-2.287612e+000 2.723930e+000 -1.281743e+001 77 69 48
3.622922e-001 1.454135e+000 -5.724436e+000 160 153 134
3.046548e-001 1.465668e+000 -5.728237e+000 101 91 66
4.762374e-001 -5.438317e-002 -6.516302e+000 126 113 93
2.865318e-001 3.292937e-001 -6.443358e+000 141 131 104
3.269983e-001 4.746268e-001 -6.382338e+000 105 98 79
-8.302501e-001 8.202524e-002 -1.024765e+001 55 42 17
-8.711480e-001 9.218023e-002 -1.028311e+001 48 52 50
-1.243096e+000 4.654034e-001 -9.994071e+000 87 94 62
-1.243096e+000 4.654034e-001 -9.994071e+000 87 94 62
4.228062e-001 7.023930e-001 -6.357372e+000 127 116 97
2.574644e-001 7.538063e-001 -6.262515e+000 109 98 77
3.317123e-001 7.794849e-001 -6.343879e+000 84 73 45
1.246185e+001 2.085286e+000 -3.667031e+001 217 206 185
1.293455e+001 2.764025e+000 -3.667161e+001 207 204 184
3.543554e-001 8.820303e-001 -6.315105e+000 100 94 82
-1.197747e+000 1.039154e+000 -8.740210e+000 183 143 90
1.126196e+001 3.617412e+000 -3.735794e+001 246 251 254
8.297329e+000 3.707651e+000 -3.789949e+001 202 195 166
1.217889e+001 3.788055e+000 -3.681755e+001 250 253 253
9.122144e+000 4.479677e+000 -3.812127e+001 203 184 158
1.023374e+001 4.535049e+000 -3.714135e+001 189 169 145
8.940140e+000 5.383316e+000 -3.840526e+001 246 240 192
2.155687e+000 2.299331e+000 -1.240606e+001 247 197 155
2.221913e+000 2.340170e+000 -1.243971e+001 187 132 64
1.713088e+000 2.596684e+000 -1.339978e+001 96 86 50
2.054238e+000 2.403515e+000 -1.230430e+001 230 177 121
2.083500e+000 2.485145e+000 -1.224731e+001 246 205 149
2.154735e+000 2.513348e+000 -1.225793e+001 89 44 20
2.133464e+000 2.536977e+000 -1.228327e+001 215 183 136
2.174554e+000 2.561844e+000 -1.230140e+001 68 35 15
2.174554e+000 2.561844e+000 -1.230140e+001 68 35 15
2.184407e+000 2.569430e+000 -1.227518e+001 240 199 144
2.645454e+000 2.663914e+000 -1.202757e+001 225 154 106
-1.094123e+000 2.178350e+000 -9.847016e+000 41 11 0
-1.385291e+000 2.217513e+000 -9.521981e+000 228 213 190
1.065201e-001 1.459095e+000 -5.797640e+000 211 197 168
2.297468e-001 1.448226e+000 -5.746273e+000 207 194 162
3.685040e-001 1.448436e+000 -5.724792e+000 120 110 87
2.617725e-001 1.453353e+000 -5.736244e+000 162 149 132
3.424268e-001 -2.064210e-001 -6.543550e+000 48 56 55
3.849916e-001 -7.260252e-002 -6.549516e+000 146 132 105
3.807492e-001 -5.317488e-003 -6.529245e+000 68 55 36
3.682836e-001 1.542234e-001 -6.483560e+000 102 87 68
3.067198e-001 4.990136e-001 -6.358737e+000 95 85 76
3.425573e-001 5.032606e-001 -6.384056e+000 103 94 75
-9.150744e-001 1.218195e-001 -1.032823e+001 175 178 176
3.403478e-001 5.815825e-001 -6.371975e+000 62 50 26
3.589189e-001 7.240353e-001 -6.350617e+000 47 40 14
1.277428e+001 1.541049e+000 -3.691271e+001 207 201 176
1.303311e+001 2.477262e+000 -3.681748e+001 205 205 177
-1.150568e+000 9.350621e-001 -8.743810e+000 179 150 107
3.524635e-001 8.420649e-001 -6.321373e+000 63 57 33
1.259202e+001 2.754242e+000 -3.681361e+001 254 250 217
1.222471e+001 2.847755e+000 -3.715075e+001 212 205 185
9.776380e+000 2.954641e+000 -3.788260e+001 253 250 227
1.168759e+001 3.051481e+000 -3.672027e+001 209 209 175
3.897073e-001 9.035597e-001 -6.329414e+000 157 145 120
3.891728e-001 9.038458e-001 -6.332200e+000 157 145 120
1.010480e+001 3.522289e+000 -3.758334e+001 246 252 254
1.223003e+001 3.649793e+000 -3.698953e+001 189 201 196
1.152442e+001 4.361851e+000 -3.736862e+001 226 199 180
4.240533e-001 1.000814e+000 -6.077618e+000 196 183 150
1.066333e-001 1.064640e+000 -6.401840e+000 82 66 39
1.087076e-001 1.073227e+000 -6.392301e+000 237 218 169
1.637023e-001 1.081810e+000 -6.368269e+000 212 191 149
4.170425e-001 1.048471e+000 -6.071879e+000 225 210 171
2.023073e+000 2.361589e+000 -1.245304e+001 193 130 58
2.159787e+000 2.378943e+000 -1.242624e+001 200 159 119
2.378711e+000 2.355037e+000 -1.227815e+001 97 43 2
2.455846e+000 2.348770e+000 -1.221089e+001 251 212 153
2.343451e+000 2.407612e+000 -1.222587e+001 254 215 142
2.116008e+000 2.478655e+000 -1.221731e+001 208 155 104
2.334305e+000 2.507680e+000 -1.230867e+001 47 13 0
2.369826e+000 2.495980e+000 -1.225163e+001 103 57 8
2.525166e+000 2.531650e+000 -1.221510e+001 253 221 152
-2.687066e+000 2.655717e+000 -1.284961e+001 114 101 87
-2.463942e+000 2.670768e+000 -1.273327e+001 97 82 54
-2.289180e+000 2.745805e+000 -1.287977e+001 77 70 52
5.501433e-001 1.253903e+000 -6.124800e+000 215 184 148
-1.731334e+000 2.495645e+000 -1.105609e+001 21 10 2
-1.392231e+000 2.139139e+000 -9.525440e+000 209 194 185
-1.392231e+000 2.139139e+000 -9.525440e+000 209 194 185
5.541218e-001 1.371785e+000 -5.852546e+000 229 200 156
5.339668e-001 1.455531e+000 -5.749755e+000 180 168 144
1.925316e-001 1.455724e+000 -5.756529e+000 186 175 149
2.300098e-001 1.452440e+000 -5.744749e+000 94 84 58
1.213333e-001 1.473027e+000 -5.785624e+000 147 137 113
5.342652e-001 1.467613e+000 -5.745875e+000 158 148 122
4.056533e-001 1.458889e+000 -5.718171e+000 163 157 134
3.429717e-001 8.660018e-003 -6.499985e+000 61 55 31
3.843764e-001 6.664151e-003 -6.527244e+000 141 129 104
3.843699e-001 8.389076e-002 -6.512467e+000 142 131 103
3.299724e-001 1.822967e-001 -6.451089e+000 110 99 81
3.166691e-001 1.988436e-001 -6.431108e+000 112 99 80
3.413827e-001 3.900488e-001 -6.414008e+000 66 58 37
3.800132e-001 4.661977e-001 -6.423476e+000 81 65 32
4.281290e-001 5.863611e-001 -6.382333e+000 156 142 113
3.973916e-001 7.308497e-001 -6.361272e+000 164 150 123
3.638414e-001 7.413482e-001 -6.356226e+000 95 88 64
3.977429e-001 7.671019e-001 -6.354382e+000 164 150 123
2.665705e-001 7.978615e-001 -6.259093e+000 100 88 73
8.133369e+000 2.844158e+000 -3.818307e+001 254 250 222
2.041651e+000 1.701598e+000 -1.638115e+001 59 51 40
1.108564e+001 3.464170e+000 -3.720765e+001 249 253 255
1.108564e+001 3.464170e+000 -3.720765e+001 249 253 255
1.730028e+000 1.732050e+000 -1.641353e+001 46 41 35
1.046964e+001 3.903146e+000 -3.759371e+001 252 255 253
1.127088e+001 4.728353e+000 -3.721111e+001 255 253 231
9.898405e+000 5.257913e+000 -3.798282e+001 193 185 152
9.695466e+000 5.383594e+000 -3.781369e+001 218 212 150
2.705184e-001 1.026772e+000 -6.213749e+000 128 119 107
9.997933e-002 1.077883e+000 -6.396389e+000 202 181 151
1.669824e-001 1.085947e+000 -6.369541e+000 97 73 35
5.234541e-001 1.078854e+000 -6.125608e+000 236 217 194
2.396236e+000 2.282200e+000 -1.225591e+001 254 216 157
4.273954e-001 1.107104e+000 -6.090674e+000 250 221 179
2.079747e+000 2.362965e+000 -1.236159e+001 254 223 164
3.105518e+000 2.389576e+000 -1.201338e+001 92 49 9
2.409331e+000 2.432481e+000 -1.225233e+001 252 212 140
2.546994e+000 2.511066e+000 -1.224082e+001 250 210 153
2.071414e+000 2.668686e+000 -1.231738e+001 255 209 139
1.982374e-001 1.461516e+000 -5.753083e+000 93 84 67
3.710716e-001 1.455219e+000 -5.724217e+000 173 165 144
3.671898e-001 1.463754e+000 -5.719453e+000 101 91 66
5.420055e-001 3.607845e-001 -6.424162e+000 157 176 206
3.740961e-001 1.307610e+000 -5.834594e+000 203 164 117
5.076047e-001 4.286616e-001 -6.403965e+000 163 181 205
5.076047e-001 4.286616e-001 -6.403965e+000 163 181 205
1.440267e+001 7.359242e-001 -3.610522e+001 232 111 108
4.687408e-001 2.541328e-002 -6.526994e+000 17 14 15
3.438724e-001 -1.407074e-001 -6.528765e+000 9 7 12
3.628140e-001 7.431056e-001 -6.355338e+000 91 76 55
4.495671e-001 1.167469e-001 -6.485916e+000 7 4 4
1.468413e+001 1.210016e+000 -3.592639e+001 254 255 252
1.284248e+001 4.606642e+000 -3.537056e+001 250 253 248
1.325023e-001 2.476608e+000 -1.039944e+001 31 24 9
1.430035e+001 9.630502e-001 -3.537049e+001 243 113 120
1.318679e+001 3.064653e+000 -3.606262e+001 253 252 255
1.325656e+001 3.355066e+000 -3.630674e+001 187 183 164
1.230903e+001 3.523064e+000 -3.716417e+001 241 244 243
1.351220e+001 3.645830e+000 -3.597994e+001 195 214 225
1.185849e+001 3.728001e+000 -3.651814e+001 243 253 253
2.201704e-001 1.296694e+000 -9.986391e+000 57 40 13
1.266920e+000 2.234935e+000 -1.631399e+001 53 44 14
1.266920e+000 2.234935e+000 -1.631399e+001 53 44 14
7.039489e-002 2.446333e+000 -1.027364e+001 23 19 13
2.573897e-001 1.365412e+000 -5.842842e+000 216 182 134
1.947441e-001 1.449580e+000 -5.755650e+000 200 176 149
2.174080e+001 -2.747450e+000 -3.693268e+001 253 244 211
2.188451e+001 -2.607638e+000 -3.786332e+001 192 154 115
2.188451e+001 -2.607638e+000 -3.786332e+001 192 154 115
3.883017e-001 6.040204e-001 -6.392921e+000 156 142 113
3.670948e+000 7.111894e-001 -1.417031e+001 253 113 118
3.670948e+000 7.111894e-001 -1.417031e+001 253 113 118
1.328319e+001 2.542461e+000 -3.653537e+001 195 179 166
1.536095e-001 1.129231e+000 -1.004155e+001 74 63 21
1.823243e+000 1.646623e+000 -1.611001e+001 73 61 52
4.048510e+000 1.742975e+000 -1.640015e+001 238 242 243
1.321978e+001 3.360765e+000 -3.560609e+001 234 239 234
1.422829e+001 3.468367e+000 -3.662284e+001 252 252 229
1.306137e+001 3.446843e+000 -3.629213e+001 249 250 252
2.653117e-001 1.344177e+000 -1.000619e+001 53 47 36
1.234424e+000 2.098229e+000 -1.642378e+001 126 110 69
1.318993e+000 2.181090e+000 -1.635214e+001 204 192 172
8.424269e+000 4.262722e+000 -3.084647e+001 140 106 53
3.899039e-001 1.110872e+000 -6.089098e+000 236 196 144
5.575800e-001 2.509061e+000 -1.048217e+001 163 129 86
3.833199e-001 1.246464e+000 -5.847676e+000 223 175 133
1.542334e-001 1.376176e+000 -5.886894e+000 203 169 123
2.003727e-001 1.372346e+000 -5.864069e+000 201 169 124
-4.300088e-002 1.506574e+000 -5.936233e+000 120 106 79
4.245971e-001 -1.537598e-001 -6.557074e+000 116 106 85
2.199466e+001 -2.358097e+000 -3.862575e+001 97 77 68
4.295379e-002 1.086286e+000 -1.036180e+001 50 42 19
1.400197e+001 3.379129e+000 -3.569049e+001 182 175 156
1.400197e+001 3.379129e+000 -3.569049e+001 182 175 156
1.399962e+001 3.614587e+000 -3.563386e+001 196 188 165
1.399962e+001 3.614587e+000 -3.563386e+001 196 188 165
1.139503e+000 2.103401e+000 -1.640903e+001 203 190 178
1.136613e+000 2.164839e+000 -1.637049e+001 131 115 75
1.136613e+000 2.164839e+000 -1.637049e+001 131 115 75
3.010608e+000 1.517325e+000 -8.798861e+000 49 29 16
4.542521e-001 1.085718e+000 -6.079105e+000 129 96 63
3.908618e-001 1.085170e+000 -6.069082e+000 129 92 50
1.343123e-002 2.345818e+000 -1.031453e+001 31 21 19
9.460037e-002 2.428211e+000 -1.031436e+001 186 173 152
9.460037e-002 2.428211e+000 -1.031436e+001 186 173 152
4.458288e-001 1.450892e+000 -5.726183e+000 131 115 90
2.805556e-001 1.464285e+000 -5.731273e+000 95 82 63
1.672294e-001 1.471621e+000 -5.762581e+000 101 89 63
4.557949e-001 1.646911e-002 -6.508246e+000 115 108 79
2.202523e+001 -1.740692e+000 -3.853771e+001 84 65 56
2.374061e-001 7.141646e-001 -6.249774e+000 66 51 30
1.404066e+001 1.103447e+000 -3.723490e+001 198 197 193
6.172889e-002 2.339969e+000 -1.032505e+001 184 167 149
6.511785e-002 2.382178e+000 -1.030994e+001 157 150 147
6.511785e-002 2.382178e+000 -1.030994e+001 157 150 147
3.618446e-001 1.448285e+000 -5.725938e+000 121 109 86
3.548797e-001 1.451815e+000 -5.724753e+000 157 144 125
2.300119e-001 1.453243e+000 -5.745831e+000 103 88 64
3.613742e-001 1.462313e+000 -5.721509e+000 97 84 66
4.477349e-001 -1.246457e-001 -6.545549e+000 16 9 4
4.400437e-001 4.529223e-002 -6.508925e+000 115 104 81
2.362680e-001 2.356023e-001 -6.355704e+000 115 102 85
4.974759e-001 5.060276e-001 -6.376278e+000 124 117 96
2.222949e+001 -2.928259e+000 -3.921986e+001 70 62 56
2.197946e+001 -1.981293e+000 -3.848431e+001 108 91 66
2.231314e+001 -1.869395e+000 -3.914962e+001 223 207 197
6.541160e-002 1.071408e+000 -1.036067e+001 114 111 94
6.541160e-002 1.071408e+000 -1.036067e+001 114 111 94
1.323518e+001 2.664665e+000 -3.609549e+001 240 234 207
1.872417e+000 1.707672e+000 -1.624565e+001 244 236 224
1.405149e+001 3.248086e+000 -3.600959e+001 253 242 215
1.136424e+001 3.644418e+000 -3.763043e+001 248 252 251
1.276293e+001 3.786327e+000 -3.646819e+001 204 212 217
2.493195e-001 1.389679e+000 -1.000117e+001 169 143 80
4.074316e-001 1.022317e+000 -6.077751e+000 230 206 162
2.528578e-001 1.056026e+000 -6.195474e+000 123 113 101
4.457427e-001 1.055773e+000 -6.060483e+000 181 163 141
2.650377e+000 2.132367e+000 -1.246734e+001 89 51 18
2.918758e+000 2.373198e+000 -1.205615e+001 188 123 55
3.742455e-001 1.251173e+000 -6.050844e+000 52 11 0
3.394573e-002 2.388678e+000 -1.030952e+001 142 133 126
3.520863e-001 9.958728e-001 -4.870696e+000 180 166 140
6.093538e-002 1.482341e+000 -5.939468e+000 197 164 119
-7.443438e-003 1.481014e+000 -5.897277e+000 234 213 182
4.197739e-001 1.450534e+000 -5.723458e+000 126 112 86
5.078015e-002 1.479261e+000 -5.836110e+000 116 98 74
5.060617e-002 1.478890e+000 -5.835815e+000 116 98 74
1.288542e-001 1.466728e+000 -5.782410e+000 156 143 126
3.382339e-001 5.365319e-001 -6.393929e+000 120 111 91
1.401100e+001 1.849393e+000 -3.363847e+001 196 192 186
5.947778e-003 1.063651e+000 -1.039207e+001 58 48 39
1.388581e+001 3.210947e+000 -3.547786e+001 240 229 202
3.124690e-001 9.165223e-001 -6.322869e+000 135 131 113
1.012560e+001 3.575241e+000 -3.820793e+001 249 250 250
1.354584e+001 3.438454e+000 -3.591693e+001 204 211 205
1.133902e+001 3.732116e+000 -3.764388e+001 200 205 208
1.314544e+001 3.767167e+000 -3.640550e+001 196 207 213
3.063832e+000 1.426678e+000 -1.056825e+001 51 34 9
2.943242e+000 1.299164e+000 -8.702985e+000 151 120 77
1.366936e+000 2.245185e+000 -1.632045e+001 136 118 94
1.361367e-001 1.115130e+000 -6.397303e+000 70 46 18
2.748857e+000 2.316205e+000 -1.203955e+001 245 190 134
3.710326e+000 2.233238e+000 -9.716818e+000 104 88 54
3.639479e-001 1.259455e+000 -6.052955e+000 255 228 175
2.521236e-001 1.261026e+000 -5.866676e+000 255 238 197
2.445789e-001 1.261450e+000 -5.868746e+000 255 228 193
-1.678815e-001 1.663299e+000 -6.591207e+000 114 98 73
3.968952e-001 1.448991e+000 -5.721585e+000 112 100 82
8.169566e-002 1.465716e+000 -5.812782e+000 117 97 72
4.042288e-001 1.452059e+000 -5.724770e+000 105 93 69
2.566007e-001 1.452560e+000 -5.738844e+000 103 90 69
2.567347e-001 1.452518e+000 -5.738857e+000 103 90 69
-2.004899e-001 1.369185e+000 -5.444688e+000 219 199 163
2.059730e-001 2.307141e-001 -6.368241e+000 68 50 28
2.213110e+001 -2.934538e+000 -3.713844e+001 176 160 133
2.182719e+001 -1.954879e+000 -3.716642e+001 251 233 182
3.902531e-001 6.004458e-001 -6.393697e+000 179 165 137
4.251959e-001 6.102089e-001 -6.377108e+000 158 143 117
4.285288e-001 6.360773e-001 -6.371609e+000 19 11 0
1.309813e+001 2.460329e+000 -3.670715e+001 208 207 187
1.261982e+001 2.502131e+000 -3.704393e+001 212 208 196
1.126582e+001 2.733138e+000 -3.803678e+001 204 190 167
1.209096e+001 2.798204e+000 -3.718199e+001 218 214 190
1.209096e+001 2.798204e+000 -3.718199e+001 218 214 190
-9.386532e-002 1.184129e+000 -9.585270e+000 192 185 161
1.302822e+001 3.355114e+000 -3.626021e+001 255 254 255
3.745132e-001 9.451125e-001 -6.320049e+000 91 81 69
3.839683e-001 9.477417e-001 -6.323635e+000 152 141 115
2.513283e-001 1.347272e+000 -1.004696e+001 54 45 41
1.189144e+001 4.309647e+000 -3.735857e+001 255 239 219
1.027073e+001 4.309173e+000 -3.056676e+001 248 230 180
8.006041e-002 1.468162e+000 -5.812680e+000 177 159 135
1.367457e-001 1.460273e+000 -5.779177e+000 191 176 153
2.992159e-001 1.452703e+000 -5.729801e+000 204 190 163
1.888372e-001 1.456573e+000 -5.756340e+000 128 111 83
4.458310e-001 -4.640079e-002 -6.522919e+000 7 6 1
1.438840e+001 -3.997338e+000 -1.855261e+001 132 128 125
-1.711600e-002 1.497660e+000 -5.905054e+000 117 110 84
1.379420e+001 -4.154887e+000 -1.844018e+001 249 238 158
1.416539e+001 -3.763476e+000 -1.967089e+001 91 64 44
1.435423e+001 -3.467432e+000 -1.846295e+001 80 70 57
1.452963e+001 -3.511584e+000 -1.862471e+001 80 70 57
1.452963e+001 -3.511584e+000 -1.862471e+001 80 70 57
1.411213e+001 -3.115226e+000 -1.815599e+001 229 221 191
1.410849e+001 -3.111949e+000 -1.815189e+001 229 221 191
1.419948e+001 -3.220850e+000 -1.958281e+001 93 70 55
1.671714e-001 1.323956e+000 -6.178262e+000 179 138 84
3.504281e-002 1.398068e+000 -5.992185e+000 192 164 117
3.504281e-002 1.398068e+000 -5.992185e+000 192 164 117
5.366479e-001 1.468573e-001 -6.460921e+000 14 12 8
1.409370e+001 -4.383726e+000 -1.941620e+001 255 241 215
1.412814e+001 -4.362087e+000 -1.969212e+001 135 130 129
1.405725e+001 -3.931159e+000 -1.862214e+001 254 239 158
3.771713e-001 1.075746e+000 -6.081231e+000 251 225 180
2.351821e+000 2.295981e+000 -1.225792e+001 237 197 135
2.343005e+000 2.414716e+000 -1.226268e+001 254 208 144
2.284484e+000 2.465315e+000 -1.228021e+001 69 38 18
2.284484e+000 2.465315e+000 -1.228021e+001 69 38 18
2.284484e+000 2.465315e+000 -1.228021e+001 69 38 18
2.275189e+000 2.693784e+000 -1.197474e+001 235 216 184
3.915330e-003 1.489332e+000 -5.879554e+000 140 128 106
5.280388e-001 -8.727816e-002 -6.501687e+000 106 96 71
1.425008e+001 -2.718390e+000 -1.806712e+001 125 116 96
2.133982e+000 2.278576e+000 -1.245067e+001 248 189 121
4.074677e-002 1.411340e+000 -5.980442e+000 248 216 165
-7.248057e-002 1.506717e+000 -5.987265e+000 97 85 69
4.766922e-001 -4.667211e-002 -6.518782e+000 116 104 74
2.305828e+000 2.310160e+000 -1.254656e+001 33 8 7
2.111589e+000 2.358816e+000 -1.240360e+001 224 179 115
2.289206e+000 2.403943e+000 -1.233933e+001 229 192 127
2.292211e+000 2.451189e+000 -1.229881e+001 59 34 12
2.092034e+000 2.522948e+000 -1.228717e+001 25 9 5
2.154311e+000 2.597745e+000 -1.223353e+001 195 144 68
2.187732e+000 2.585218e+000 -1.215423e+001 204 164 102
2.221262e+000 2.645189e+000 -1.224281e+001 84 39 18
-2.015009e-003 1.480560e+000 -6.039231e+000 190 161 117
-2.015009e-003 1.480560e+000 -6.039231e+000 190 161 117
2.033433e-001 1.456910e+000 -5.753070e+000 108 100 79
-2.966484e-003 1.480007e+000 -5.889015e+000 216 200 165
1.421988e+001 -4.297046e+000 -1.832035e+001 167 158 151
1.421998e+001 -4.297375e+000 -1.832054e+001 167 158 151
1.430323e+001 -4.414226e+000 -1.942661e+001 101 94 79
1.441637e+001 -4.450949e+000 -1.953838e+001 101 94 79
1.441845e+001 -4.322303e+000 -2.012047e+001 246 226 202
1.430855e+001 -4.075168e+000 -1.834932e+001 133 118 95
1.435468e+001 -3.816878e+000 -2.000923e+001 68 46 44
1.422912e+001 -3.505060e+000 -1.817291e+001 146 130 107
1.416984e+001 -3.485752e+000 -1.811848e+001 146 130 107
1.422817e+001 -3.229402e+000 -1.817253e+001 243 229 202
1.400477e+001 -3.186719e+000 -1.825043e+001 133 115 93
1.400477e+001 -3.186719e+000 -1.825043e+001 133 115 93
2.068043e+000 2.312681e+000 -1.237546e+001 81 34 2
2.230458e+000 2.384344e+000 -1.242348e+001 156 92 30
2.230458e+000 2.384344e+000 -1.242348e+001 156 92 30
2.185340e+000 2.408438e+000 -1.239946e+001 238 205 147
2.467486e+000 2.435550e+000 -1.230960e+001 195 133 60
2.467486e+000 2.435550e+000 -1.230960e+001 195 133 60
1.990468e+000 2.439418e+000 -1.220912e+001 234 198 134
2.199664e+000 2.501853e+000 -1.224382e+001 98 52 8
1.565729e-001 1.218157e+000 -6.230493e+000 191 158 112
2.210838e+000 2.603450e+000 -1.212400e+001 101 64 38
2.338522e+000 2.637413e+000 -1.223226e+001 227 180 113
2.186121e+000 2.666774e+000 -1.222780e+001 191 145 87
2.172780e+000 2.695454e+000 -1.217939e+001 89 44 21
3.784899e-002 1.488118e+000 -5.965759e+000 197 166 119
-5.159506e-002 1.496758e+000 -5.949991e+000 106 90 65
3.836294e-002 1.475852e+000 -5.848254e+000 134 119 88
3.330244e-001 -3.280192e-002 -6.681859e+000 75 73 61
4.893285e-001 2.101150e-001 -6.444896e+000 136 129 103
1.452555e+001 -4.337101e+000 -1.963127e+001 126 113 101
1.434321e+001 -3.911622e+000 -2.008049e+001 236 222 199
1.445144e+001 -3.754121e+000 -1.993020e+001 61 39 34
1.400324e+001 -2.182595e+000 -1.797233e+001 248 239 208
1.431529e+001 -1.684198e+000 -1.813136e+001 251 251 225
1.436284e+001 -1.583336e+000 -1.937903e+001 55 41 35
1.404174e+001 -1.039173e+000 -1.783986e+001 148 127 94
2.292639e+000 2.284103e+000 -1.242630e+001 184 147 95
2.286961e+000 2.497047e+000 -1.230818e+001 36 10 7
2.401957e+000 2.508374e+000 -1.221284e+001 254 223 165
2.297263e+000 2.557436e+000 -1.224523e+001 104 55 12
2.297263e+000 2.557436e+000 -1.224523e+001 104 55 12
2.415305e+000 2.633995e+000 -1.215567e+001 185 137 69
1.719162e+000 2.548766e+000 -1.075610e+001 214 199 168
1.719162e+000 2.548766e+000 -1.075610e+001 214 199 168
3.949412e-002 1.391488e+000 -5.985355e+000 243 210 165
6.003058e-002 1.390214e+000 -5.959378e+000 171 137 93
1.397116e+001 -4.188586e+000 -1.848189e+001 149 121 81
2.358916e+000 2.269018e+000 -1.247427e+001 229 192 140
2.353537e+000 2.393647e+000 -1.232414e+001 227 184 111
2.093830e+000 2.398248e+000 -1.233684e+001 87 51 7
2.048199e+000 2.428390e+000 -1.228752e+001 117 67 11
2.178058e+000 2.439867e+000 -1.218720e+001 221 168 110
2.230967e+000 2.582008e+000 -1.217067e+001 223 189 144
2.230967e+000 2.582008e+000 -1.217067e+001 223 189 144
1.742290e+000 2.621252e+000 -1.229157e+001 246 232 202
2.304719e+000 2.716080e+000 -1.191584e+001 154 131 101
-8.773314e-003 1.489336e+000 -5.895554e+000 174 162 138
4.677192e-001 3.192556e-001 -6.431304e+000 91 82 71
1.430777e+001 -2.179614e+000 -1.977415e+001 123 98 74
5.403098e-001 7.633928e-001 -6.302355e+000 143 129 100
2.925484e+000 1.173500e+000 -1.044668e+001 72 68 52
2.088315e+000 2.297345e+000 -1.236568e+001 240 196 149
2.291487e+000 2.336935e+000 -1.240072e+001 212 166 108
2.187636e+000 2.365162e+000 -1.242746e+001 222 190 152
2.269881e+000 2.427360e+000 -1.242690e+001 247 199 137
2.287386e+000 2.589182e+000 -1.227970e+001 60 14 0
2.044558e+000 2.606561e+000 -1.222222e+001 248 208 137
2.304297e+000 2.622634e+000 -1.222828e+001 58 12 0
2.244059e+000 2.634225e+000 -1.216505e+001 248 199 146
1.729583e+000 2.665219e+000 -1.227848e+001 245 230 197
2.221783e+000 2.741160e+000 -1.199782e+001 237 193 133
3.915609e-001 1.249873e+000 -5.843687e+000 248 230 182
1.764191e-002 1.475066e+000 -5.868262e+000 190 169 138
-4.166706e-002 1.488199e+000 -5.926747e+000 146 130 104
1.433954e+001 -4.308302e+000 -2.016209e+001 63 52 40
3.863225e-001 5.295682e-001 -6.412565e+000 152 138 106
4.348992e-001 5.868859e-001 -6.378877e+000 94 83 53
2.277646e+000 2.525690e+000 -1.222222e+001 254 229 168
2.096060e+000 2.552152e+000 -1.228841e+001 233 195 153
2.308650e+000 2.609259e+000 -1.224568e+001 251 203 149
2.408835e+000 2.624867e+000 -1.219584e+001 255 213 138
1.476332e+000 2.716243e+000 -1.335545e+001 110 83 54
1.504711e+000 2.678098e+000 -1.337160e+001 32 23 1
1.332041e+000 2.747776e+000 -1.327494e+001 74 52 6
2.339365e+000 2.553051e+000 -1.228138e+001 250 220 150
7.011474e-001 1.275385e+000 -6.371600e+000 115 103 84
4.569269e-001 3.340782e-001 -5.975082e+000 159 179 197
-1.131520e+000 9.753133e-001 -8.785868e+000 188 153 87
7.132329e-001 1.278551e+000 -6.373138e+000 247 218 174
-2.674707e-001 1.600217e+000 -6.440389e+000 109 106 101
4.344969e-001 1.571325e-001 -6.714421e+000 139 131 108
3.916768e-001 7.763384e-001 -6.355923e+000 151 138 112
-1.155807e+000 9.565412e-001 -8.775342e+000 152 125 75
4.224082e-001 1.035910e+000 -6.081775e+000 231 215 177
3.973358e-001 1.449334e+000 -5.722273e+000 109 94 75
-1.661333e-003 1.381574e+000 -5.492096e+000 68 60 49
2.609373e-001 4.476543e-001 -6.324084e+000 115 98 81
3.149915e-001 4.486628e-001 -6.369606e+000 117 105 81
3.403536e-001 6.140614e-001 -6.360210e+000 102 90 66
3.500496e-001 7.788939e-001 -6.333541e+000 94 86 66
-1.393539e+000 1.735161e+000 -9.264633e+000 77 56 17
7.778280e-001 1.548692e+000 -6.336254e+000 215 193 151
3.875108e-001 1.465838e+000 -5.718210e+000 159 147 121
2.167966e+001 -2.733561e+000 -3.683929e+001 253 244 211
2.175928e+001 -1.863584e+000 -3.717849e+001 254 237 165
2.172753e+001 -1.862086e+000 -3.714450e+001 254 237 165
4.107297e-001 1.067715e+000 -6.073736e+000 56 35 22
2.201662e+001 -1.555573e+000 -3.710383e+001 255 241 214
1.290613e+000 2.116854e+000 -1.639691e+001 198 186 174
3.058627e+000 2.331552e+000 -1.208799e+001 247 199 137
4.131859e-001 1.829926e-001 -6.477015e+000 131 120 97
2.214545e+001 -3.020649e+000 -3.832646e+001 120 106 97
2.920001e+000 2.373391e+000 -1.206104e+001 188 123 55
2.857757e+000 2.380732e+000 -1.204357e+001 193 125 62
2.857757e+000 2.380732e+000 -1.204357e+001 193 125 62
4.146171e-001 1.456508e+000 -5.797287e+000 148 119 73
4.126032e-001 6.846708e-001 -6.365748e+000 95 79 54
1.440391e+001 2.389485e+000 -3.586393e+001 253 251 235
1.544238e-001 1.069570e+000 -6.368296e+000 198 175 150
4.276850e-001 1.034196e+000 -6.079154e+000 85 65 39
3.050833e+000 2.227137e+000 -1.225464e+001 253 215 169
1.689809e-001 1.458061e+000 -5.762837e+000 100 82 58
4.322726e-001 1.148811e-001 -6.484147e+000 133 120 95
4.101380e-001 8.022299e-001 -6.341152e+000 147 131 106
3.156629e+000 2.248579e+000 -1.204643e+001 255 192 127
3.043697e+000 2.281340e+000 -1.205801e+001 253 206 147
3.130395e+000 2.346107e+000 -1.198716e+001 164 104 42
5.501198e-001 1.205138e+000 -6.135877e+000 196 161 128
3.304217e-001 5.435692e-001 -6.610760e+000 72 59 40
1.850757e-001 1.354299e+000 -5.918616e+000 247 225 172
3.195613e-001 5.451002e-001 -6.599626e+000 67 54 35
5.206501e-001 -1.004677e-001 -6.508661e+000 111 99 71
4.450947e-001 -4.559727e-002 -6.521874e+000 7 6 1
3.059171e+000 2.497038e+000 -1.210054e+001 156 110 44
5.258457e-001 -4.659670e-002 -6.508411e+000 117 99 63
5.355029e-001 2.308430e-001 -6.427171e+000 130 122 86
1.568771e-001 1.117519e+000 -6.384670e+000 50 24 6
2.730793e+000 2.475325e+000 -1.214577e+001 217 165 98
2.732197e+000 2.620460e+000 -1.202683e+001 247 207 138
1.133845e-001 1.468638e+000 -5.792767e+000 82 68 55
3.300061e-001 2.024977e-001 -6.633775e+000 98 82 61
2.697777e+000 2.394900e+000 -1.218761e+001 2 4 1
2.916770e+000 2.580555e+000 -1.207846e+001 44 23 17
2.896737e+000 2.648877e+000 -1.209615e+001 242 202 138
3.055191e+000 2.655763e+000 -1.205392e+001 41 16 8
-5.121282e-002 1.528781e+000 -6.214093e+000 221 196 155
4.109959e+000 1.791716e+000 -1.293411e+001 110 89 72
4.109959e+000 1.791716e+000 -1.293411e+001 110 89 72
2.027110e-001 1.112173e+000 -6.341460e+000 53 43 23
2.933127e+000 2.625060e+000 -1.197970e+001 230 177 106
2.715396e+000 2.697324e+000 -1.195736e+001 213 159 87
3.327749e-001 -1.037359e-001 -6.694701e+000 90 83 56
2.739603e-001 3.360482e-001 -6.428524e+000 120 108 81
3.294609e-001 4.885334e-001 -6.537682e+000 91 79 60
3.083141e-001 9.090602e-001 -6.328192e+000 24 24 24
3.750659e-001 1.045076e+000 -6.111578e+000 167 148 115
1.708210e-001 1.111536e+000 -6.358433e+000 226 204 156
2.645577e+000 2.209679e+000 -1.220193e+001 168 103 43
1.619113e-001 1.143782e+000 -6.237102e+000 228 195 149
2.798240e+000 2.386141e+000 -1.221895e+001 62 27 14
2.798240e+000 2.386141e+000 -1.221895e+001 62 27 14
3.047307e+000 2.381363e+000 -1.215385e+001 213 152 93
2.648671e+000 2.647413e+000 -1.204124e+001 223 163 103
3.049693e+000 2.674466e+000 -1.205113e+001 22 6 3
3.049693e+000 2.674466e+000 -1.205113e+001 22 6 3
2.678534e+000 2.712100e+000 -1.211963e+001 57 24 5
5.254421e+000 2.006322e+000 -8.348705e+000 108 99 90
3.873730e-001 1.253394e+000 -5.866018e+000 180 138 95
4.586103e-001 -1.181441e-001 -6.519113e+000 27 22 12
5.261740e-001 -1.367953e-001 -6.514642e+000 89 91 75
3.352666e-001 -7.784290e-002 -6.672836e+000 87 80 68
3.358759e-001 -7.831073e-002 -6.673590e+000 87 80 68
5.002827e+000 8.529194e-001 -8.746765e+000 141 119 86
1.708923e-001 1.099092e+000 -6.361681e+000 209 186 152
1.786578e-001 1.114198e+000 -6.349748e+000 67 53 17
3.921300e-001 1.085325e+000 -6.066901e+000 140 105 67
1.541327e-001 1.143573e+000 -6.268790e+000 63 39 16
3.109612e+000 2.251713e+000 -1.222196e+001 214 158 91
3.087653e+000 2.428399e+000 -1.214047e+001 41 8 4
2.854609e+000 2.495507e+000 -1.209680e+001 22 6 4
2.650515e+000 2.504907e+000 -1.215312e+001 30 7 9
2.906517e+000 2.626888e+000 -1.215402e+001 202 155 79
2.612757e+000 2.600867e+000 -1.209980e+001 236 187 123
2.920430e+000 2.607079e+000 -1.204449e+001 33 6 5
2.674995e+000 2.613589e+000 -1.206707e+001 59 26 7
2.674995e+000 2.613589e+000 -1.206707e+001 59 26 7
2.783259e+000 2.713410e+000 -1.192315e+001 175 127 73
5.264669e+000 1.993313e+000 -8.317946e+000 15 11 13
2.878492e+000 2.536655e+000 -1.065942e+001 126 109 83
2.878492e+000 2.536655e+000 -1.065942e+001 126 109 83
2.537534e+000 2.551934e+000 -1.070764e+001 172 156 131
2.790682e-001 1.462761e+000 -6.562225e+000 109 86 60
7.291726e-002 1.383452e+000 -5.949405e+000 251 219 170
2.531679e-001 1.451175e+000 -5.738541e+000 98 88 63
-1.025027e-001 1.518672e+000 -6.052119e+000 107 95 68
-1.434560e-002 1.481755e+000 -5.905620e+000 204 188 152
-1.592571e-002 1.487538e+000 -5.904074e+000 121 111 83
3.268716e-001 -1.015369e-001 -6.676286e+000 75 69 50
5.384131e-001 1.467088e-001 -6.445558e+000 25 24 23
4.218670e-001 4.564075e-001 -6.405020e+000 133 122 92
3.052141e+000 2.327863e+000 -1.226306e+001 227 183 120
3.069297e+000 2.350074e+000 -1.219482e+001 76 31 6
2.658639e+000 2.458871e+000 -1.211332e+001 52 22 9
2.688821e+000 2.471164e+000 -1.203499e+001 255 211 150
2.990741e+000 2.503878e+000 -1.199666e+001 242 195 128
2.876481e+000 2.564008e+000 -1.211064e+001 19 5 0
2.566089e+000 2.604123e+000 -1.212810e+001 248 192 125
2.824138e+000 2.619792e+000 -1.207161e+001 89 41 19
2.606471e+000 2.713830e+000 -1.206149e+001 229 178 111
2.448822e+000 2.534502e+000 -1.063393e+001 219 203 177
2.470986e+000 2.554510e+000 -1.060269e+001 231 211 187
2.716923e-001 1.316483e+000 -6.065035e+000 252 218 170
1.798228e-001 1.476515e+000 -6.366795e+000 221 195 146
1.801942e-001 1.491427e+000 -6.366764e+000 205 181 135
5.390080e-002 1.386341e+000 -5.963417e+000 241 209 160
4.040947e-001 1.458916e+000 -5.722038e+000 171 161 134
2.934842e-001 1.451680e+000 -5.730425e+000 186 172 143
-1.195050e-001 1.543733e+000 -6.147978e+000 80 68 51
