ply
format ascii 1.0
element face 0
property list uchar int vertex_indices
element vertex 885
property float x
property float y
property float z
property uchar diffuse_red
property uchar diffuse_green
property uchar diffuse_blue
end_header
3.699962e-001 -1.482120e-001 -6.398256e+000 13 9 10
3.716695e-001 -1.475344e-001 -6.398624e+000 13 9 10
4.218850e-001 1.229805e-002 -6.423989e+000 129 159 196
2.853566e-001 6.565919e-001 -6.229365e+000 67 58 41
2.810145e-001 7.207646e-001 -6.220454e+000 75 67 46
1.347296e+001 1.356258e+000 -3.775069e+001 254 255 253
8.767146e+000 2.716090e+000 -4.045669e+001 251 255 253
9.921889e+000 4.234161e+000 -3.796558e+001 255 253 254
2.580427e+000 2.300744e+000 -1.200935e+001 240 191 128
2.464882e-001 -1.544347e-001 -6.372776e+000 7 7 10
2.887917e-001 1.277422e-001 -6.348788e+000 46 37 18
8.607479e+000 1.736907e+000 -4.004273e+001 254 255 250
9.655396e+000 1.928809e+000 -3.871164e+001 223 211 188
1.137684e+001 3.897690e+000 -3.778767e+001 193 207 211
2.029619e-001 1.053643e+000 -6.074506e+000 32 25 17
2.202184e+000 2.396637e+000 -1.219993e+001 215 177 126
4.453524e-001 1.136334e+000 -5.986124e+000 172 140 99
5.234659e-001 1.351130e+000 -5.749221e+000 156 124 85
2.948136e-001 -2.118244e-001 -6.429015e+000 57 50 43
3.102166e-001 -1.735735e-001 -6.430477e+000 114 102 75
3.826930e-001 -6.916511e-002 -6.366212e+000 9 8 5
3.755591e-001 3.467520e-002 -6.371325e+000 126 114 90
1.538325e-001 9.193960e-002 -6.262499e+000 114 99 73
2.455492e-001 4.746511e-001 -6.243492e+000 77 67 48
-1.236087e+000 3.050609e-001 -1.005487e+001 123 109 43
1.148693e+001 7.769776e-001 -3.854551e+001 248 139 127
1.148693e+001 7.769776e-001 -3.854551e+001 248 139 127
1.186306e+001 3.616866e+000 -3.784141e+001 181 168 145
6.023154e+000 2.156398e+000 -2.084365e+001 181 168 145
1.021391e+001 3.924071e+000 -3.739102e+001 208 219 224
8.554864e+000 4.431309e+000 -3.945063e+001 254 255 250
3.312745e-001 9.909585e-001 -5.936164e+000 217 200 149
2.597490e+000 2.453547e+000 -1.203340e+001 34 16 13
3.080972e-001 -1.693812e-001 -6.426698e+000 119 109 82
3.597016e-001 -3.710709e-002 -6.371104e+000 128 117 89
3.727382e-001 5.101027e-001 -6.312645e+000 170 185 197
2.633412e-001 6.363468e-001 -6.219974e+000 117 104 70
1.395745e+001 1.137687e+000 -3.852983e+001 170 144 130
1.187919e+001 1.937864e+000 -3.822536e+001 157 151 136
1.333301e+001 2.130134e+000 -3.844788e+001 217 213 188
1.182417e+001 2.231541e+000 -3.899658e+001 210 204 179
1.146253e+001 2.248959e+000 -3.899675e+001 213 212 182
8.889709e+000 3.000670e+000 -3.879922e+001 252 255 234
9.146984e+000 3.031677e+000 -3.904579e+001 206 197 175
9.146984e+000 3.031677e+000 -3.904579e+001 206 197 175
8.910572e+000 4.320376e+000 -4.061633e+001 198 192 165
1.289376e+001 4.810830e+000 -3.952168e+001 192 175 151
3.317034e-001 1.002726e+000 -5.936159e+000 152 133 90
3.479242e-001 1.023995e+000 -5.938574e+000 68 55 38
3.280002e-001 1.041845e+000 -5.937440e+000 54 38 23
2.093563e+000 2.324924e+000 -1.229416e+001 53 27 14
2.093563e+000 2.324924e+000 -1.229416e+001 53 27 14
2.091751e+000 2.324127e+000 -1.228924e+001 53 27 14
2.391679e+000 2.314858e+000 -1.208309e+001 246 203 134
2.220572e+000 2.387296e+000 -1.217621e+001 215 165 106
2.225371e+000 2.433607e+000 -1.213602e+001 82 47 32
2.234507e+000 2.441900e+000 -1.218000e+001 82 47 32
2.138900e+000 2.497079e+000 -1.215172e+001 95 47 16
2.138900e+000 2.497079e+000 -1.215172e+001 95 47 16
2.082326e+000 2.564919e+000 -1.216631e+001 46 27 33
2.082326e+000 2.564919e+000 -1.216631e+001 46 27 33
-2.438704e+000 2.686756e+000 -1.265171e+001 62 52 27
1.028251e-001 1.343159e+000 -5.732967e+000 218 186 139
6.647012e-001 1.464639e+000 -5.750505e+000 141 133 110
3.080449e-001 -3.354562e-002 -6.394104e+000 133 122 94
3.780146e-001 3.236246e-002 -6.371706e+000 117 105 86
-9.598006e-001 1.141431e-001 -1.018997e+001 64 51 26
-1.035546e+000 1.694187e-001 -1.014421e+001 66 47 4
-1.468069e+000 4.370782e-001 -9.487174e+000 83 65 30
2.905114e-001 7.268118e-001 -6.217268e+000 92 80 56
1.086471e+001 1.305993e+000 -3.806507e+001 179 100 92
1.038870e+001 1.394224e+000 -4.019607e+001 242 117 116
9.671683e+000 1.393187e+000 -3.861227e+001 192 104 98
9.899833e+000 2.331286e+000 -3.910319e+001 221 214 195
1.101506e+001 2.872995e+000 -3.849593e+001 168 158 136
1.101526e+001 2.877329e+000 -3.849912e+001 168 158 136
8.416447e+000 3.055261e+000 -3.998639e+001 210 191 166
1.101464e+001 3.203257e+000 -3.843969e+001 205 194 176
1.074812e+001 3.205834e+000 -3.829581e+001 200 189 171
8.903135e+000 3.903514e+000 -3.947418e+001 205 194 167
8.619397e+000 4.483180e+000 -3.818074e+001 225 223 196
9.144976e+000 4.634526e+000 -3.877422e+001 215 195 169
1.292908e+001 4.588671e+000 -3.767026e+001 155 147 135
9.263733e+000 5.528705e+000 -3.903806e+001 200 181 150
4.030885e-001 1.063672e+000 -5.953725e+000 121 94 55
2.158282e+000 2.362155e+000 -1.224071e+001 164 102 41
2.978193e+000 2.308897e+000 -1.190857e+001 235 187 125
2.034461e+000 2.388841e+000 -1.221729e+001 97 52 11
2.062533e+000 2.452904e+000 -1.226595e+001 246 196 137
2.980687e+000 2.398846e+000 -1.192609e+001 36 6 0
2.359294e+000 2.445762e+000 -1.209019e+001 228 180 105
2.031237e+000 2.512294e+000 -1.216584e+001 22 9 4
2.029121e+000 2.509595e+000 -1.215438e+001 22 9 4
-1.446011e+000 2.178241e+000 -9.386536e+000 66 54 32
-1.122356e+000 2.326458e+000 -9.632489e+000 13 11 22
5.400560e-001 1.448428e+000 -5.654463e+000 72 64 43
2.790975e-001 1.431875e+000 -5.583737e+000 101 90 68
2.878190e-001 -1.762806e-001 -6.421587e+000 55 51 39
2.970473e-001 1.520149e-001 -6.351169e+000 66 51 30
2.443306e-001 3.688793e-001 -6.259026e+000 67 60 41
1.963342e-001 4.396255e-001 -6.194761e+000 104 93 72
1.963342e-001 4.396255e-001 -6.194761e+000 104 93 72
4.303325e-001 4.832984e-001 -6.235108e+000 115 106 78
3.054105e-001 5.318760e-001 -6.265584e+000 153 138 107
2.536433e-001 5.920477e-001 -6.213935e+000 59 47 23
-1.071579e+000 5.290271e-001 -9.470341e+000 42 46 31
2.602584e-001 6.491302e-001 -6.215957e+000 121 112 79
3.003495e-001 6.762126e-001 -6.234247e+000 148 134 108
1.114132e+001 7.191272e-001 -3.779985e+001 249 117 124
1.012687e+001 8.230996e-001 -3.914457e+001 211 111 115
9.871279e+000 8.313073e-001 -3.823487e+001 211 111 115
1.366184e+001 9.566226e-001 -3.773948e+001 253 240 215
1.014070e+001 9.354870e-001 -3.848359e+001 229 120 130
1.197454e+001 2.237331e+000 -3.845668e+001 218 213 190
3.021287e-001 8.248583e-001 -6.198081e+000 134 129 97
1.018721e+001 2.955091e+000 -3.912387e+001 188 175 150
-1.385259e-001 1.089880e+000 -1.039853e+001 59 55 39
8.610756e+000 3.024790e+000 -3.936808e+001 211 198 171
8.445138e+000 3.026840e+000 -3.918591e+001 206 199 173
1.347352e+001 3.845046e+000 -3.735175e+001 248 254 248
9.527483e+000 4.071072e+000 -3.872450e+001 206 212 210
1.027808e+001 4.122365e+000 -3.861781e+001 194 206 215
1.184456e+001 4.378107e+000 -3.818348e+001 235 209 189
1.259563e+001 4.412175e+000 -3.779167e+001 253 239 210
1.168800e+001 4.389418e+000 -3.740462e+001 255 242 221
1.282727e+001 4.605682e+000 -3.797911e+001 177 158 135
1.254446e+001 4.600718e+000 -3.784124e+001 201 180 157
1.184001e+001 4.708256e+000 -3.858642e+001 189 164 141
1.118200e+001 4.881291e+000 -3.985790e+001 192 165 149
1.020077e+001 4.968600e+000 -3.881729e+001 195 181 163
2.338793e+000 2.286852e+000 -1.215176e+001 252 213 154
2.002628e+000 2.295961e+000 -1.222665e+001 100 49 11
2.959576e+000 2.319748e+000 -1.197349e+001 79 36 3
2.219650e+000 2.412095e+000 -1.233620e+001 249 205 149
2.309984e+000 2.373772e+000 -1.213294e+001 254 198 136
2.397117e+000 2.378735e+000 -1.208376e+001 255 227 159
2.714682e+000 2.365969e+000 -1.194516e+001 230 181 119
2.000416e+000 2.432532e+000 -1.213190e+001 238 183 122
-2.358993e+000 2.707698e+000 -1.269319e+001 77 69 48
2.796161e-001 1.424153e+000 -5.587115e+000 160 153 134
2.224799e-001 1.435552e+000 -5.590989e+000 101 91 66
3.956015e-001 -7.138651e-002 -6.374854e+000 126 113 93
2.068470e-001 3.092603e-001 -6.302298e+000 141 131 104
2.467711e-001 4.535062e-001 -6.241356e+000 105 98 79
-8.995630e-001 6.319118e-002 -1.010539e+001 55 42 17
-9.403551e-001 7.330399e-002 -1.014102e+001 48 52 50
-1.311491e+000 4.453782e-001 -9.850152e+000 87 94 62
-1.311491e+000 4.453782e-001 -9.850152e+000 87 94 62
3.416208e-001 6.796081e-001 -6.216033e+000 127 116 97
1.773136e-001 7.304013e-001 -6.122061e+000 109 98 77
2.511349e-001 7.560265e-001 -6.202690e+000 84 73 45
1.285048e+001 2.147633e+000 -3.752564e+001 217 206 185
1.333227e+001 2.848254e+000 -3.750960e+001 207 204 184
2.733839e-001 8.578367e-001 -6.174740e+000 100 94 82
-1.266571e+000 1.015866e+000 -8.593333e+000 183 143 90
1.161146e+001 3.730701e+000 -3.823713e+001 246 251 254
8.552411e+000 3.823440e+000 -3.881456e+001 202 195 166
1.255390e+001 3.906179e+000 -3.766773e+001 250 253 253
9.407264e+000 4.623320e+000 -3.905011e+001 203 184 158
1.054373e+001 4.676294e+000 -3.800178e+001 189 169 145
9.219335e+000 5.557954e+000 -3.934404e+001 246 240 192
2.086361e+000 2.283175e+000 -1.225976e+001 247 197 155
2.152994e+000 2.324426e+000 -1.229497e+001 187 132 64
1.647247e+000 2.583023e+000 -1.326124e+001 96 86 50
1.984383e+000 2.386881e+000 -1.215709e+001 230 177 121
2.013349e+000 2.468337e+000 -1.209966e+001 246 205 149
2.084481e+000 2.496536e+000 -1.211002e+001 89 44 20
2.063273e+000 2.520226e+000 -1.213539e+001 215 183 136
2.105028e+000 2.545760e+000 -1.215626e+001 68 35 15
2.105028e+000 2.545760e+000 -1.215626e+001 68 35 15
2.114392e+000 2.552842e+000 -1.212793e+001 240 199 144
2.573852e+000 2.646841e+000 -1.187748e+001 225 154 106
-1.163923e+000 2.153225e+000 -9.699474e+000 41 11 0
-1.454587e+000 2.191379e+000 -9.375430e+000 228 213 190
2.621150e-002 1.429003e+000 -5.660238e+000 211 197 168
1.482768e-001 1.418229e+000 -5.609050e+000 207 194 162
2.857979e-001 1.418523e+000 -5.587524e+000 120 110 87
1.800019e-001 1.423310e+000 -5.599018e+000 162 149 132
2.629313e-001 -2.225816e-001 -6.402804e+000 48 56 55
3.050863e-001 -8.968241e-002 -6.408459e+000 146 132 105
3.008087e-001 -2.276436e-002 -6.387860e+000 68 55 36
2.882119e-001 1.355779e-001 -6.342291e+000 102 87 68
2.265780e-001 4.776783e-001 -6.217917e+000 95 85 76
2.622726e-001 4.819463e-001 -6.242972e+000 103 94 75
-9.841759e-001 1.028671e-001 -1.018630e+001 175 178 176
2.599155e-001 5.596590e-001 -6.230872e+000 62 50 26
2.782197e-001 7.010779e-001 -6.209790e+000 47 40 14
1.317351e+001 1.585612e+000 -3.777338e+001 207 201 176
1.343768e+001 2.552724e+000 -3.766778e+001 205 205 177
-1.219516e+000 9.122773e-001 -8.596910e+000 179 150 107
2.716301e-001 8.181170e-001 -6.180210e+000 63 57 33
1.298032e+001 2.838297e+000 -3.766066e+001 254 250 217
1.260603e+001 2.935779e+000 -3.802106e+001 212 205 185
1.008324e+001 3.046538e+000 -3.880017e+001 253 250 227
1.204660e+001 3.144796e+000 -3.756884e+001 209 209 175
3.085920e-001 8.791674e-001 -6.187963e+000 157 145 120
3.080291e-001 8.794677e-001 -6.190935e+000 157 145 120
1.041763e+001 3.632177e+000 -3.847661e+001 246 252 254
1.260749e+001 3.763625e+000 -3.784590e+001 189 201 196
1.188198e+001 4.500148e+000 -3.824653e+001 226 199 180
3.419970e-001 9.753610e-001 -5.937874e+000 196 183 150
2.766787e-002 1.038896e+000 -6.260580e+000 82 66 39
2.974251e-002 1.047367e+000 -6.250809e+000 237 218 169
8.425733e-002 1.055893e+000 -6.226820e+000 212 191 149
3.349850e-001 1.022597e+000 -5.932131e+000 225 210 171
1.953871e+000 2.345383e+000 -1.230713e+001 193 130 58
2.090766e+000 2.363081e+000 -1.228140e+001 200 159 119
2.308628e+000 2.338645e+000 -1.213039e+001 97 43 2
2.385561e+000 2.332317e+000 -1.206261e+001 251 212 153
2.273813e+000 2.391607e+000 -1.208054e+001 254 215 142
2.046070e+000 2.462149e+000 -1.207121e+001 208 155 104
2.264466e+000 2.491402e+000 -1.216149e+001 47 13 0
2.300417e+000 2.480226e+000 -1.210707e+001 103 57 8
2.454451e+000 2.515043e+000 -1.206600e+001 253 221 152
-2.759820e+000 2.639729e+000 -1.272895e+001 114 101 87
-2.535713e+000 2.654255e+000 -1.260955e+001 97 82 54
-2.360654e+000 2.729824e+000 -1.275615e+001 77 70 52
4.669587e-001 1.226495e+000 -5.984195e+000 215 184 148
-1.800617e+000 2.473476e+000 -1.091576e+001 21 10 2
-1.461397e+000 2.113232e+000 -9.378883e+000 209 194 185
-1.461397e+000 2.113232e+000 -9.378883e+000 209 194 185
4.701388e-001 1.342870e+000 -5.713823e+000 229 200 156
4.498303e-001 1.425405e+000 -5.611108e+000 180 168 144
1.114006e-001 1.425677e+000 -5.619319e+000 186 175 149
1.485242e-001 1.422433e+000 -5.607560e+000 94 84 58
4.086099e-002 1.442798e+000 -5.648210e+000 147 137 113
4.501278e-001 1.437680e+000 -5.607963e+000 158 148 122
3.225808e-001 1.428880e+000 -5.580806e+000 163 157 134
2.632319e-001 -8.941233e-003 -6.358931e+000 61 55 31
3.043955e-001 -1.086697e-002 -6.385846e+000 141 129 104
3.042960e-001 6.577843e-002 -6.371105e+000 142 131 103
2.500922e-001 1.633968e-001 -6.310111e+000 110 99 81
2.368330e-001 1.798045e-001 -6.290268e+000 112 99 80
2.611795e-001 3.695924e-001 -6.272919e+000 66 58 37
2.994810e-001 4.452039e-001 -6.282169e+000 81 65 32
3.470504e-001 5.644788e-001 -6.240980e+000 156 142 113
3.163629e-001 7.078293e-001 -6.219541e+000 164 150 123
2.830734e-001 7.182193e-001 -6.214950e+000 95 88 64
3.166760e-001 7.437912e-001 -6.212704e+000 164 150 123
1.863087e-001 7.741169e-001 -6.118583e+000 100 88 73
8.388903e+000 2.932344e+000 -3.912811e+001 254 250 222
1.991344e+000 1.695215e+000 -1.629547e+001 59 51 40
1.143051e+001 3.572424e+000 -3.808716e+001 249 253 255
1.143051e+001 3.572424e+000 -3.808716e+001 249 253 255
1.678531e+000 1.725950e+000 -1.633254e+001 46 41 35
1.079449e+001 4.026083e+000 -3.848630e+001 252 255 253
1.161750e+001 4.877745e+000 -3.807880e+001 255 253 231
1.020664e+001 5.427321e+000 -3.889696e+001 193 185 152
9.993489e+000 5.555459e+000 -3.871252e+001 218 212 150
1.899669e-001 1.001147e+000 -6.073093e+000 128 119 107
2.108652e-002 1.051984e+000 -6.254881e+000 202 181 151
8.751135e-002 1.060003e+000 -6.228072e+000 97 73 35
4.406323e-001 1.052892e+000 -5.985193e+000 236 217 194
2.326762e+000 2.266305e+000 -1.211056e+001 254 216 157
3.452499e-001 1.080779e+000 -5.950685e+000 250 221 179
2.010150e+000 2.346542e+000 -1.221496e+001 254 223 164
3.034005e+000 2.373143e+000 -1.186320e+001 92 49 9
2.339318e+000 2.416164e+000 -1.210487e+001 252 212 140
2.476577e+000 2.494658e+000 -1.209242e+001 250 210 153
2.001484e+000 2.652014e+000 -1.217025e+001 255 209 139
1.170477e-001 1.431392e+000 -5.615850e+000 93 84 67
2.883494e-001 1.425258e+000 -5.586953e+000 173 165 144
2.844529e-001 1.433676e+000 -5.582149e+000 101 91 66
4.602709e-001 3.407388e-001 -6.282259e+000 157 176 206
2.916715e-001 1.279127e+000 -5.696482e+000 203 164 117
4.260320e-001 4.080724e-001 -6.262183e+000 163 181 205
4.260320e-001 4.080724e-001 -6.262183e+000 163 181 205
1.485073e+001 7.534092e-001 -3.692755e+001 232 111 108
3.881736e-001 7.789425e-003 -6.385350e+000 17 14 15
2.642454e-001 -1.570898e-001 -6.387227e+000 9 7 12
2.820053e-001 7.199745e-001 -6.213755e+000 91 76 55
3.689053e-001 9.853354e-002 -6.344027e+000 7 4 4
1.514602e+001 1.243382e+000 -3.675284e+001 254 255 252
1.321217e+001 4.743348e+000 -3.611532e+001 250 253 248
5.946602e-002 2.450487e+000 -1.023983e+001 31 24 9
1.472965e+001 9.869399e-001 -3.614009e+001 243 113 120
1.358353e+001 3.156569e+000 -3.686167e+001 253 252 255
1.365989e+001 3.457506e+000 -3.712258e+001 187 183 164
1.269113e+001 3.633172e+000 -3.803028e+001 241 244 243
1.391876e+001 3.756646e+000 -3.677482e+001 195 214 225
1.221257e+001 3.840961e+000 -3.733333e+001 243 253 253
1.468440e-001 1.274825e+000 -9.828826e+000 57 40 13
1.212706e+000 2.232103e+000 -1.623971e+001 53 44 14
1.212706e+000 2.232103e+000 -1.623971e+001 53 44 14
-2.587904e-003 2.419910e+000 -1.011409e+001 23 19 13
1.759444e-001 1.336351e+000 -5.704842e+000 216 182 134
1.136161e-001 1.419581e+000 -5.618461e+000 200 176 149
2.255347e+001 -2.858397e+000 -3.794189e+001 253 244 211
2.272960e+001 -2.715920e+000 -3.894468e+001 192 154 115
2.272960e+001 -2.715920e+000 -3.894468e+001 192 154 115
3.075506e-001 5.819946e-001 -6.251384e+000 156 142 113
3.614403e+000 6.981417e-001 -1.404262e+001 253 113 118
3.614403e+000 6.981417e-001 -1.404262e+001 253 113 118
1.369298e+001 2.619264e+000 -3.737002e+001 195 179 166
8.077934e-002 1.108115e+000 -9.884209e+000 74 63 21
1.771247e+000 1.639574e+000 -1.602535e+001 73 61 52
4.006624e+000 1.737575e+000 -1.630295e+001 238 242 243
1.360904e+001 3.460284e+000 -3.637327e+001 234 239 234
1.467459e+001 3.577586e+000 -3.747020e+001 252 252 229
1.345695e+001 3.551864e+000 -3.710477e+001 249 250 252
1.918051e-001 1.322180e+000 -9.848591e+000 53 47 36
1.180525e+000 2.094883e+000 -1.635242e+001 126 110 69
1.265282e+000 2.178084e+000 -1.627866e+001 204 192 172
8.585355e+000 4.354308e+000 -3.127381e+001 140 106 53
3.080361e-001 1.084467e+000 -5.949045e+000 236 196 144
4.831145e-001 2.483682e+000 -1.032281e+001 163 129 86
3.008808e-001 1.218538e+000 -5.709487e+000 223 175 133
7.375612e-002 1.346996e+000 -5.748718e+000 203 169 123
1.194565e-001 1.343206e+000 -5.725994e+000 201 169 124
-1.217870e-001 1.476166e+000 -5.797827e+000 120 106 79
3.443591e-001 -1.699323e-001 -6.414938e+000 116 106 85
2.286707e+001 -2.458578e+000 -3.976885e+001 97 77 68
-2.884323e-002 1.065701e+000 -1.020427e+001 50 42 19
1.442184e+001 3.480921e+000 -3.647084e+001 182 175 156
1.442184e+001 3.480921e+000 -3.647084e+001 182 175 156
1.441797e+001 3.723649e+000 -3.640964e+001 196 188 165
1.441797e+001 3.723649e+000 -3.640964e+001 196 188 165
1.084615e+000 2.099495e+000 -1.633373e+001 203 190 178
1.081865e+000 2.161685e+000 -1.629816e+001 131 115 75
1.081865e+000 2.161685e+000 -1.629816e+001 131 115 75
2.922933e+000 1.495070e+000 -8.641185e+000 49 29 16
3.718845e-001 1.059571e+000 -5.939134e+000 129 96 63
3.090033e-001 1.058969e+000 -5.929418e+000 129 92 50
-5.917891e-002 2.319831e+000 -1.015502e+001 31 21 19
2.159943e-002 2.401996e+000 -1.015479e+001 186 173 152
2.159943e-002 2.401996e+000 -1.015479e+001 186 173 152
3.624297e-001 1.420997e+000 -5.588670e+000 131 115 90
1.986057e-001 1.434169e+000 -5.594066e+000 95 82 63
8.633704e-002 1.441426e+000 -5.625371e+000 101 89 63
3.751689e-001 -1.023514e-003 -6.366412e+000 115 108 79
2.289402e+001 -1.815640e+000 -3.967022e+001 84 65 56
1.574264e-001 6.910428e-001 -6.109467e+000 66 51 30
1.449566e+001 1.134533e+000 -3.813266e+001 198 197 193
-1.106055e-002 2.314088e+000 -1.016551e+001 184 167 149
-7.739048e-003 2.356095e+000 -1.015039e+001 157 150 147
-7.739048e-003 2.356095e+000 -1.015039e+001 157 150 147
2.792038e-001 1.418372e+000 -5.588675e+000 121 109 86
2.722838e-001 1.421839e+000 -5.587323e+000 157 144 125
1.485521e-001 1.423229e+000 -5.608645e+000 103 88 64
2.786518e-001 1.432256e+000 -5.584120e+000 97 84 66
3.674386e-001 -1.411677e-001 -6.404025e+000 16 9 4
3.595143e-001 2.758176e-002 -6.367076e+000 115 104 81
1.568799e-001 2.162327e-001 -6.215391e+000 115 102 85
4.158570e-001 4.848248e-001 -6.234608e+000 124 117 96
2.313243e+001 -3.054355e+000 -4.041645e+001 70 62 56
2.282115e+001 -2.062915e+000 -3.957635e+001 108 91 66
2.318890e+001 -1.947903e+000 -4.029619e+001 223 207 197
-6.464764e-003 1.050902e+000 -1.020323e+001 114 111 94
-6.464764e-003 1.050902e+000 -1.020323e+001 114 111 94
1.363495e+001 2.743879e+000 -3.689851e+001 240 234 207
1.816643e+000 1.699076e+000 -1.613574e+001 244 236 224
1.447953e+001 3.347102e+000 -3.681278e+001 253 242 215
1.171735e+001 3.758932e+000 -3.851848e+001 248 252 251
1.314992e+001 3.902644e+000 -3.728920e+001 204 212 217
1.758336e-001 1.367455e+000 -9.843441e+000 169 143 80
3.254923e-001 9.966576e-001 -5.937976e+000 230 206 162
1.723635e-001 1.030119e+000 -6.054898e+000 123 113 101
3.634254e-001 1.029842e+000 -5.920716e+000 181 163 141
2.581071e+000 2.116766e+000 -1.232032e+001 89 51 18
2.847554e+000 2.356796e+000 -1.190653e+001 188 123 55
2.923008e-001 1.223511e+000 -5.910928e+000 52 11 0
-3.878660e-002 2.362534e+000 -1.014998e+001 142 133 126
2.679732e-001 9.687429e-001 -4.742445e+000 180 166 140
-1.872085e-002 1.452246e+000 -5.800898e+000 197 164 119
-8.659236e-002 1.450778e+000 -5.759121e+000 234 213 182
3.365966e-001 1.420617e+000 -5.586028e+000 126 112 86
-2.895278e-002 1.449007e+000 -5.698494e+000 116 98 74
-2.913612e-002 1.448634e+000 -5.698173e+000 116 98 74
4.834258e-002 1.436564e+000 -5.645104e+000 156 143 126
2.578532e-001 5.150208e-001 -6.252396e+000 120 111 91
1.439465e+001 1.897014e+000 -3.428803e+001 196 192 186
-6.563675e-002 1.043167e+000 -1.023454e+001 58 48 39
1.429755e+001 3.306273e+000 -3.624302e+001 240 229 202
2.318553e-001 8.919543e-001 -6.181379e+000 135 131 113
1.043967e+001 3.687600e+000 -3.912146e+001 249 250 250
1.395267e+001 3.542406e+000 -3.670831e+001 204 211 205
1.169138e+001 3.849559e+000 -3.853258e+001 200 205 208
1.354578e+001 3.883272e+000 -3.722602e+001 196 207 213
2.985970e+000 1.408223e+000 -1.041345e+001 51 34 9
2.855480e+000 1.277634e+000 -8.545773e+000 151 120 77
1.308444e+000 2.237420e+000 -1.620537e+001 136 118 94
5.691153e-002 1.088926e+000 -6.255233e+000 70 46 18
2.677459e+000 2.299503e+000 -1.188963e+001 245 190 134
3.625584e+000 2.211288e+000 -9.557857e+000 104 88 54
2.821043e-001 1.231728e+000 -5.913058e+000 255 228 175
1.708439e-001 1.232890e+000 -5.728600e+000 255 238 197
1.633677e-001 1.233307e+000 -5.730666e+000 255 228 193
-2.447375e-001 1.632659e+000 -6.447219e+000 114 98 73
3.139149e-001 1.419066e+000 -5.584225e+000 112 100 82
1.651713e-003 1.435567e+000 -5.675302e+000 117 97 72
3.211842e-001 1.422137e+000 -5.587341e+000 105 93 69
1.748780e-001 1.422550e+000 -5.601640e+000 103 90 69
1.750188e-001 1.422497e+000 -5.601653e+000 103 90 69
-2.785466e-001 1.338991e+000 -5.311264e+000 219 199 163
1.267685e-001 2.115470e-001 -6.227353e+000 68 50 28
2.294605e+001 -3.049845e+000 -3.813513e+001 176 160 133
2.264733e+001 -2.035462e+000 -3.818967e+001 251 233 182
3.094229e-001 5.784724e-001 -6.251980e+000 179 165 137
3.441186e-001 5.881384e-001 -6.235701e+000 158 143 117
3.473105e-001 6.138334e-001 -6.229856e+000 19 11 0
1.350408e+001 2.534738e+000 -3.755230e+001 208 207 187
1.301331e+001 2.578372e+000 -3.790791e+001 212 208 196
1.162264e+001 2.818578e+000 -3.895562e+001 204 190 167
1.246606e+001 2.883985e+000 -3.804916e+001 218 214 190
1.246606e+001 2.883985e+000 -3.804916e+001 218 214 190
-1.663747e-001 1.161857e+000 -9.427883e+000 192 185 161
1.342212e+001 3.456967e+000 -3.707055e+001 255 254 255
2.934363e-001 9.203751e-001 -6.178660e+000 91 81 69
3.027712e-001 9.229775e-001 -6.181966e+000 152 141 115
1.779527e-001 1.325314e+000 -9.889311e+000 54 45 41
1.225972e+001 4.445992e+000 -3.823181e+001 255 239 219
1.048324e+001 4.405645e+000 -3.100384e+001 248 230 180
1.632547e-005 1.437975e+000 -5.675152e+000 177 159 135
5.616353e-002 1.430167e+000 -5.641891e+000 191 176 153
2.171038e-001 1.422684e+000 -5.592567e+000 204 190 163
1.077575e-001 1.426510e+000 -5.619149e+000 128 111 83
3.651193e-001 -6.326776e-002 -6.380610e+000 7 6 1
1.449409e+001 -4.053118e+000 -1.852800e+001 132 128 125
-9.614695e-002 1.467288e+000 -5.766928e+000 117 110 84
1.389939e+001 -4.214989e+000 -1.842216e+001 249 238 158
1.427233e+001 -3.816021e+000 -1.966047e+001 91 64 44
1.445285e+001 -3.515656e+000 -1.843133e+001 80 70 57
1.465028e+001 -3.565455e+000 -1.861260e+001 80 70 57
1.465028e+001 -3.565455e+000 -1.861260e+001 80 70 57
1.420580e+001 -3.159313e+000 -1.812009e+001 229 221 191
1.420025e+001 -3.155634e+000 -1.811421e+001 229 221 191
1.430474e+001 -3.266779e+000 -1.956923e+001 93 70 55
8.718959e-002 1.295708e+000 -6.037676e+000 179 138 84
-4.420398e-002 1.368773e+000 -5.853340e+000 192 164 117
-4.420398e-002 1.368773e+000 -5.853340e+000 192 164 117
4.551311e-001 1.284200e-001 -6.318899e+000 14 12 8
1.419836e+001 -4.443095e+000 -1.940231e+001 255 241 215
1.423626e+001 -4.421960e+000 -1.968381e+001 135 130 129
1.417031e+001 -3.989772e+000 -1.860962e+001 254 239 158
2.953864e-001 1.049584e+000 -5.941279e+000 251 225 180
2.281909e+000 2.279675e+000 -1.211051e+001 237 197 135
2.273076e+000 2.398385e+000 -1.211536e+001 254 208 144
2.214199e+000 2.448732e+000 -1.213204e+001 69 38 18
2.214199e+000 2.448732e+000 -1.213204e+001 69 38 18
2.214199e+000 2.448732e+000 -1.213204e+001 69 38 18
2.203685e+000 2.676233e+000 -1.182501e+001 235 216 184
-7.533366e-002 1.459013e+000 -5.741628e+000 140 128 106
4.466903e-001 -1.038431e-001 -6.359441e+000 106 96 71
1.434243e+001 -2.757758e+000 -1.802739e+001 125 116 96
2.064357e+000 2.262306e+000 -1.230341e+001 248 189 121
-3.860090e-002 1.381896e+000 -5.841639e+000 248 216 165
-1.508775e-001 1.476368e+000 -5.848560e+000 97 85 69
3.959179e-001 -6.368273e-002 -6.376726e+000 116 104 74
2.236639e+000 2.294353e+000 -1.239997e+001 33 8 7
2.042236e+000 2.342608e+000 -1.225729e+001 224 179 115
2.219150e+000 2.387534e+000 -1.219145e+001 229 192 127
2.222000e+000 2.434669e+000 -1.215074e+001 59 34 12
2.021823e+000 2.506170e+000 -1.213920e+001 25 9 5
2.083895e+000 2.580878e+000 -1.208530e+001 195 144 68
2.116973e+000 2.568141e+000 -1.200546e+001 204 164 102
2.150899e+000 2.628441e+000 -1.209470e+001 84 39 18
-8.128010e-002 1.450514e+000 -5.899574e+000 190 161 117
-8.090687e-002 1.450603e+000 -5.899969e+000 190 161 117
1.221293e-001 1.426863e+000 -5.615877e+000 108 100 79
-8.211267e-002 1.449805e+000 -5.751065e+000 216 200 165
1.432198e+001 -4.355884e+000 -1.829264e+001 167 158 151
1.432108e+001 -4.356050e+000 -1.829191e+001 167 158 151
1.441484e+001 -4.475618e+000 -1.941691e+001 101 94 79
1.455449e+001 -4.521434e+000 -1.955444e+001 101 94 79
1.453656e+001 -4.383160e+000 -2.012212e+001 246 226 202
1.441990e+001 -4.134297e+000 -1.832921e+001 133 118 95
1.446871e+001 -3.870921e+000 -2.000643e+001 68 46 44
1.432561e+001 -3.553825e+000 -1.813839e+001 146 130 107
1.426045e+001 -3.533053e+000 -1.807894e+001 146 130 107
1.432336e+001 -3.274837e+000 -1.813673e+001 243 229 202
1.409539e+001 -3.231071e+000 -1.821383e+001 133 115 93
1.409539e+001 -3.231071e+000 -1.821383e+001 133 115 93
1.998122e+000 2.296126e+000 -1.222775e+001 81 34 2
2.160758e+000 2.368115e+000 -1.227617e+001 156 92 30
2.160758e+000 2.368115e+000 -1.227617e+001 156 92 30
2.115551e+000 2.392094e+000 -1.225204e+001 238 205 147
2.397321e+000 2.419259e+000 -1.216151e+001 195 133 60
2.397321e+000 2.419259e+000 -1.216151e+001 195 133 60
1.919930e+000 2.422282e+000 -1.206053e+001 234 198 134
2.129246e+000 2.485064e+000 -1.209549e+001 98 52 8
7.685710e-002 1.190845e+000 -6.089644e+000 191 158 112
2.139955e+000 2.586306e+000 -1.197507e+001 101 64 38
2.268102e+000 2.620769e+000 -1.208402e+001 227 180 113
2.115708e+000 2.649938e+000 -1.207964e+001 191 145 87
2.102175e+000 2.678448e+000 -1.203097e+001 89 44 21
-4.152396e-002 1.458025e+000 -5.827048e+000 197 166 119
-1.302193e-001 1.466456e+000 -5.811596e+000 106 90 65
-4.121468e-002 1.445640e+000 -5.710578e+000 134 119 88
2.549210e-001 -5.034243e-002 -6.540330e+000 75 73 61
4.079981e-001 1.912682e-001 -6.302862e+000 136 129 103
1.466758e+001 -4.406698e+000 -1.965044e+001 126 113 101
1.445763e+001 -3.966821e+000 -2.007894e+001 236 222 199
1.457423e+001 -3.810101e+000 -1.993414e+001 61 39 34
1.410191e+001 -2.218226e+000 -1.794048e+001 248 239 208
1.442173e+001 -1.714549e+000 -1.810375e+001 251 251 225
1.449696e+001 -1.615111e+000 -1.938920e+001 55 41 35
1.413751e+001 -1.061662e+000 -1.780325e+001 148 127 94
2.222906e+000 2.267932e+000 -1.227881e+001 184 147 95
2.216809e+000 2.480555e+000 -1.216023e+001 36 10 7
2.331390e+000 2.491725e+000 -1.206425e+001 254 223 165
2.226868e+000 2.540772e+000 -1.209697e+001 104 55 12
2.226868e+000 2.540772e+000 -1.209697e+001 104 55 12
2.344546e+000 2.617200e+000 -1.200692e+001 185 137 69
1.643399e+000 2.526789e+000 -1.060104e+001 214 199 168
1.643399e+000 2.526789e+000 -1.060104e+001 214 199 168
-3.980032e-002 1.362241e+000 -5.846566e+000 243 210 165
-1.949386e-002 1.360953e+000 -5.820765e+000 171 137 93
1.406711e+001 -4.245053e+000 -1.845302e+001 149 121 81
2.289389e+000 2.253048e+000 -1.232706e+001 229 192 140
2.283410e+000 2.377265e+000 -1.217612e+001 227 184 111
2.023778e+000 2.381613e+000 -1.218901e+001 87 51 7
1.977961e+000 2.411557e+000 -1.213941e+001 117 67 11
2.107377e+000 2.422880e+000 -1.203842e+001 221 168 110
2.160267e+000 2.565034e+000 -1.202199e+001 223 189 144
2.160267e+000 2.565034e+000 -1.202199e+001 223 189 144
1.672168e+000 2.604042e+000 -1.214375e+001 246 232 202
2.232969e+000 2.698375e+000 -1.176580e+001 154 131 101
-8.786519e-002 1.459061e+000 -5.757545e+000 174 162 138
3.864614e-001 2.995559e-001 -6.289299e+000 91 82 71
1.444948e+001 -2.220410e+000 -1.979731e+001 123 98 74
4.579034e-001 7.401419e-001 -6.160672e+000 143 129 100
2.846741e+000 1.155153e+000 -1.029088e+001 72 68 52
2.018344e+000 2.280784e+000 -1.221787e+001 240 196 149
2.221665e+000 2.320697e+000 -1.225314e+001 212 166 108
2.117943e+000 2.348893e+000 -1.228015e+001 222 190 152
2.200218e+000 2.411196e+000 -1.227967e+001 247 199 137
2.217154e+000 2.572619e+000 -1.213172e+001 60 14 0
1.974117e+000 2.589526e+000 -1.207397e+001 248 208 137
2.233856e+000 2.605934e+000 -1.208001e+001 58 12 0
2.173359e+000 2.617254e+000 -1.201642e+001 248 199 146
1.659416e+000 2.647944e+000 -1.213060e+001 245 230 197
2.150420e+000 2.723619e+000 -1.184833e+001 237 193 133
3.090626e-001 1.221920e+000 -5.705544e+000 248 230 182
-6.172405e-002 1.444873e+000 -5.730443e+000 190 169 138
-1.204232e-001 1.457950e+000 -5.788522e+000 146 130 104
1.445324e+001 -4.367616e+000 -2.016060e+001 63 52 40
3.054995e-001 5.081918e-001 -6.270577e+000 152 138 106
3.536221e-001 5.650464e-001 -6.237045e+000 94 83 53
2.207136e+000 2.508927e+000 -1.207376e+001 254 229 168
2.026094e+000 2.535506e+000 -1.214109e+001 233 195 153
2.238279e+000 2.592618e+000 -1.209751e+001 251 203 149
2.338249e+000 2.608189e+000 -1.204733e+001 255 213 138
1.410393e+000 2.702498e+000 -1.321778e+001 110 83 54
1.438889e+000 2.664427e+000 -1.323418e+001 32 23 1
1.266451e+000 2.734530e+000 -1.314031e+001 74 52 6
2.269535e+000 2.536796e+000 -1.213442e+001 250 220 150
6.177007e-001 1.248296e+000 -6.228320e+000 115 103 84
3.748818e-001 3.139724e-001 -5.836952e+000 159 179 197
-1.200930e+000 9.525267e-001 -8.640049e+000 188 153 87
6.293904e-001 1.251634e+000 -6.231407e+000 247 218 174
-3.439356e-001 1.570221e+000 -6.299125e+000 109 106 101
3.544578e-001 1.385590e-001 -6.571594e+000 139 131 108
3.106726e-001 7.529703e-001 -6.214650e+000 151 138 112
-1.225103e+000 9.337980e-001 -8.629591e+000 152 125 75
3.403472e-001 1.010166e+000 -5.942079e+000 231 215 177
3.143616e-001 1.419461e+000 -5.585071e+000 109 94 75
-8.145906e-002 1.351553e+000 -5.357431e+000 68 60 49
1.811112e-001 4.266528e-001 -6.183754e+000 115 98 81
2.348095e-001 4.276884e-001 -6.229279e+000 117 105 81
2.598730e-001 5.918885e-001 -6.219235e+000 102 90 66
2.692677e-001 7.554863e-001 -6.193111e+000 94 86 66
-1.462663e+000 1.710262e+000 -9.119212e+000 77 56 17
6.932133e-001 1.519786e+000 -6.193933e+000 215 193 151
3.046378e-001 1.435649e+000 -5.580556e+000 159 147 121
2.249213e+001 -2.844451e+000 -3.784881e+001 253 244 211
2.258177e+001 -1.941189e+000 -3.821009e+001 254 237 165
2.254837e+001 -1.939665e+000 -3.817406e+001 254 237 165
3.287458e-001 1.041698e+000 -5.934015e+000 56 35 22
2.284869e+001 -1.621052e+000 -3.813155e+001 255 241 214
1.237093e+000 2.113652e+000 -1.632526e+001 198 186 174
2.987797e+000 2.315513e+000 -1.193891e+001 247 199 137
3.326192e-001 1.643049e-001 -6.334969e+000 131 120 97
2.302484e+001 -3.148476e+000 -3.945981e+001 120 106 97
2.848827e+000 2.357028e+000 -1.191147e+001 188 123 55
2.786422e+000 2.364211e+000 -1.189376e+001 193 125 62
2.786422e+000 2.364211e+000 -1.189376e+001 193 125 62
3.316513e-001 1.426672e+000 -5.659114e+000 148 119 73
3.315535e-001 6.620231e-001 -6.224404e+000 95 79 54
1.485160e+001 2.461622e+000 -3.667967e+001 253 251 235
7.509884e-002 1.043771e+000 -6.227039e+000 198 175 150
3.456005e-001 1.008459e+000 -5.939403e+000 85 65 39
2.980930e+000 2.211573e+000 -1.210674e+001 253 215 169
8.808252e-002 1.427980e+000 -5.625631e+000 100 82 58
3.517671e-001 9.658712e-002 -6.342712e+000 133 120 95
3.288589e-001 7.786399e-001 -6.199393e+000 147 131 106
3.085797e+000 2.232620e+000 -1.189742e+001 255 192 127
2.972747e+000 2.265221e+000 -1.190882e+001 253 206 147
3.059129e+000 2.329898e+000 -1.183759e+001 164 104 42
4.670368e-001 1.178163e+000 -5.995174e+000 196 161 128
2.504602e-001 5.222222e-001 -6.467387e+000 72 59 40
1.043750e-001 1.325384e+000 -5.780099e+000 247 225 172
2.396607e-001 5.237270e-001 -6.456350e+000 67 54 35
4.393884e-001 -1.169427e-001 -6.366399e+000 111 99 71
3.643863e-001 -6.246964e-002 -6.379573e+000 7 6 1
2.988743e+000 2.481139e+000 -1.195208e+001 156 110 44
4.444986e-001 -6.346422e-002 -6.366071e+000 117 99 63
4.536458e-001 2.118783e-001 -6.285033e+000 130 122 86
7.759031e-002 1.091236e+000 -6.242769e+000 50 24 6
2.659407e+000 2.458694e+000 -1.199559e+001 217 165 98
2.660053e+000 2.603347e+000 -1.187561e+001 247 207 138
3.303057e-002 1.438463e+000 -5.655412e+000 82 68 55
2.505384e-001 1.835800e-001 -6.490968e+000 98 82 61
2.626590e+000 2.378369e+000 -1.203767e+001 2 4 1
2.845557e+000 2.564150e+000 -1.192877e+001 44 23 17
2.825377e+000 2.632394e+000 -1.194616e+001 242 202 138
2.984205e+000 2.639599e+000 -1.190463e+001 41 16 8
-1.295824e-001 1.498564e+000 -6.073172e+000 221 196 155
4.049757e+000 1.779512e+000 -1.279840e+001 110 89 72
4.049757e+000 1.779512e+000 -1.279840e+001 110 89 72
1.228865e-001 1.085916e+000 -6.199730e+000 53 43 23
2.861478e+000 2.608389e+000 -1.182951e+001 230 177 106
2.642769e+000 2.679868e+000 -1.180547e+001 213 159 87
2.536414e-001 -1.204158e-001 -6.551887e+000 90 83 56
1.941507e-001 3.161798e-001 -6.286780e+000 120 108 81
2.493664e-001 4.675592e-001 -6.394881e+000 91 79 60
2.277741e-001 8.845035e-001 -6.186651e+000 24 24 24
2.928402e-001 1.018928e+000 -5.971107e+000 167 148 115
9.137245e-002 1.085275e+000 -6.216719e+000 226 204 156
2.574649e+000 2.193242e+000 -1.205239e+001 168 103 43
8.226660e-002 1.117082e+000 -6.096316e+000 228 195 149
2.727564e+000 2.369963e+000 -1.206987e+001 62 27 14
2.727564e+000 2.369963e+000 -1.206987e+001 62 27 14
2.977323e+000 2.365654e+000 -1.200603e+001 213 152 93
2.576240e+000 2.630049e+000 -1.188941e+001 223 163 103
2.978639e+000 2.658263e+000 -1.190174e+001 22 6 3
2.978639e+000 2.658263e+000 -1.190174e+001 22 6 3
2.606342e+000 2.694942e+000 -1.196803e+001 57 24 5
5.165055e+000 1.985194e+000 -8.191993e+000 108 99 90
3.048458e-001 1.225433e+000 -5.727590e+000 180 138 95
3.778557e-001 -1.344872e-001 -6.376908e+000 27 22 12
4.449191e-001 -1.530075e-001 -6.372379e+000 89 91 75
2.581279e-001 -9.516989e-002 -6.531829e+000 87 80 68
2.567259e-001 -9.515079e-002 -6.530932e+000 87 80 68
4.915170e+000 8.347989e-001 -8.590624e+000 141 119 86
9.135045e-002 1.072939e+000 -6.219830e+000 209 186 152
9.901648e-002 1.087911e+000 -6.207957e+000 67 53 17
3.100601e-001 1.059051e+000 -5.926927e+000 140 105 67
7.457354e-002 1.116921e+000 -6.127720e+000 63 39 16
3.040421e+000 2.236380e+000 -1.207527e+001 214 158 91
3.017655e+000 2.412722e+000 -1.199262e+001 41 8 4
2.783433e+000 2.479067e+000 -1.194713e+001 22 6 4
2.578806e+000 2.488034e+000 -1.200229e+001 30 7 9
2.835464e+000 2.610609e+000 -1.200442e+001 202 155 79
2.540510e+000 2.583612e+000 -1.194811e+001 236 187 123
2.849034e+000 2.590566e+000 -1.189457e+001 33 6 5
2.602819e+000 2.596420e+000 -1.191565e+001 59 26 7
2.602819e+000 2.596420e+000 -1.191565e+001 59 26 7
2.710688e+000 2.696042e+000 -1.177151e+001 175 127 73
5.175111e+000 1.972162e+000 -8.161247e+000 15 11 13
2.801194e+000 2.516327e+000 -1.050461e+001 126 109 83
2.801194e+000 2.516327e+000 -1.050461e+001 126 109 83
2.460086e+000 2.530902e+000 -1.055187e+001 172 156 131
1.988067e-001 1.434119e+000 -6.418258e+000 109 86 60
-6.724998e-003 1.354239e+000 -5.810868e+000 251 219 170
1.714777e-001 1.421215e+000 -5.601358e+000 98 88 63
-1.805314e-001 1.488267e+000 -5.912886e+000 107 95 68
-9.335255e-002 1.451533e+000 -5.767550e+000 204 188 152
-9.492307e-002 1.457261e+000 -5.766017e+000 121 111 83
2.473979e-001 -1.179394e-001 -6.533109e+000 75 69 50
4.566488e-001 1.283903e-001 -6.303389e+000 25 24 23
3.407167e-001 4.356334e-001 -6.263019e+000 133 122 92
2.982743e+000 2.312466e+000 -1.211599e+001 227 183 120
2.999633e+000 2.334537e+000 -1.204743e+001 76 31 6
2.586910e+000 2.441977e+000 -1.196256e+001 52 22 9
2.616887e+000 2.454144e+000 -1.188410e+001 255 211 150
2.919620e+000 2.487527e+000 -1.184731e+001 242 195 128
2.805285e+000 2.547593e+000 -1.196091e+001 19 5 0
2.493774e+000 2.586793e+000 -1.197615e+001 248 192 125
2.752482e+000 2.603065e+000 -1.192117e+001 89 41 19
2.533822e+000 2.696286e+000 -1.190916e+001 229 178 111
2.371054e+000 2.513099e+000 -1.047777e+001 219 203 177
2.393077e+000 2.533023e+000 -1.044649e+001 231 211 187
1.905438e-001 1.288196e+000 -5.925114e+000 252 218 170
9.987767e-002 1.447301e+000 -6.224361e+000 221 195 146
1.002309e-001 1.462092e+000 -6.224307e+000 205 181 135
-2.561949e-002 1.357070e+000 -5.824727e+000 241 209 160
3.210578e-001 1.428990e+000 -5.584640e+000 171 161 134
2.114285e-001 1.421748e+000 -5.593221e+000 186 172 143
-1.974066e-001 1.513178e+000 -6.007712e+000 80 68 51
2.975418e-001 1.435302e+000 -5.585011e+000 106 99 73
2.578678e-001 1.525737e-001 -6.478683e+000 85 82 66
2.414787e-001 7.252440e-001 -6.388608e+000 95 86 69
4.052380e+000 1.848795e+000 -1.264117e+001 84 66 48
4.003211e+000 1.938112e+000 -1.280958e+001 64 49 40
2.988653e+000 2.216570e+000 -1.226210e+001 77 38 1
2.988653e+000 2.216570e+000 -1.226210e+001 77 38 1
2.987192e+000 2.366895e+000 -1.187521e+001 191 143 97
2.744816e+000 2.385481e+000 -1.195694e+001 193 131 57
2.944064e+000 2.456663e+000 -1.192056e+001 251 203 145
2.876462e+000 2.455600e+000 -1.180948e+001 164 112 51
2.876462e+000 2.455600e+000 -1.180948e+001 164 112 51
2.512780e+000 2.602376e+000 -1.196128e+001 178 119 51
5.169626e+000 1.933384e+000 -8.177669e+000 33 21 26
2.352820e+000 2.728139e+000 -1.180040e+001 150 121 93
2.769503e+000 2.525403e+000 -1.045079e+001 193 177 151
1.983752e+000 2.513894e+000 -1.051362e+001 249 230 198
-1.524801e-001 1.647055e+000 -6.533213e+000 86 69 40
-8.036176e-002 1.463161e+000 -5.897575e+000 176 147 103
-8.036176e-002 1.463161e+000 -5.897575e+000 176 147 103
3.812346e-001 1.435866e+000 -5.590010e+000 92 78 51
-8.670214e-002 1.450326e+000 -5.757578e+000 223 207 171
-2.855437e-002 1.449327e+000 -5.698653e+000 108 94 68
-8.663563e-002 1.465764e+000 -5.760414e+000 112 100 74
3.828672e-001 -1.509353e-001 -6.393984e+000 12 7 2
2.416505e-001 -2.477413e-002 -6.529290e+000 84 81 66
3.250209e-001 8.023181e-001 -6.190963e+000 148 134 107
2.914042e-002 1.055012e+000 -6.248018e+000 236 213 164
6.343006e-002 1.106811e+000 -6.231554e+000 33 6 3
2.686023e+000 2.245342e+000 -1.209212e+001 244 190 133
2.948784e+000 2.312876e+000 -1.212375e+001 227 182 128
2.498791e+000 2.313215e+000 -1.200938e+001 238 179 118
3.082455e+000 2.339288e+000 -1.199146e+001 232 187 130
2.818673e+000 2.434393e+000 -1.177115e+001 255 209 154
2.858265e+000 2.528849e+000 -1.202398e+001 70 26 0
7.583572e-002 1.198134e+000 -6.115199e+000 177 145 104
2.870793e+000 2.470698e+000 -1.172351e+001 228 178 119
2.453766e+000 2.571497e+000 -1.201487e+001 196 129 56
2.605934e+000 2.655121e+000 -1.184404e+001 53 14 0
2.624803e+000 2.687915e+000 -1.177190e+001 255 210 157
3.039336e-001 1.178003e+000 -5.716495e+000 74 44 8
3.039336e-001 1.178003e+000 -5.716495e+000 74 44 8
7.026650e-002 1.297710e+000 -6.122353e+000 224 189 147
2.474457e+000 2.555510e+000 -1.047099e+001 192 172 145
1.738887e-001 1.238132e+000 -5.760543e+000 201 173 131
9.780711e-002 1.350321e+000 -6.010190e+000 247 215 167
3.716929e-002 1.430232e+000 -5.650483e+000 98 83 58
-5.702603e-003 1.440830e+000 -5.680164e+000 172 158 130
-2.103940e-002 1.447864e+000 -5.692027e+000 121 106 82
-1.686919e-001 1.506531e+000 -5.902710e+000 91 80 50
-5.991562e-002 1.459017e+000 -5.726788e+000 168 158 133
-7.049310e-001 1.429911e+000 -5.706635e+000 46 48 45
1.362462e-001 4.550177e-001 -6.169322e+000 88 73 44
3.238619e-001 5.697825e-001 -6.242305e+000 149 136 104
3.238619e-001 5.697825e-001 -6.242305e+000 149 136 104
2.442881e-001 8.910268e-001 -6.392786e+000 81 74 59
2.866333e-001 1.015690e+000 -5.985689e+000 63 48 24
2.477602e-001 1.091579e+000 -6.293316e+000 96 87 70
3.037788e+000 2.213313e+000 -1.218378e+001 90 50 9
2.899489e+000 2.280450e+000 -1.222135e+001 46 8 0
2.427748e+000 2.485690e+000 -1.207177e+001 248 194 134
2.676980e+000 2.463694e+000 -1.192190e+001 255 204 137
2.970060e+000 2.487917e+000 -1.179922e+001 238 180 121
2.646818e+000 2.613322e+000 -1.186346e+001 255 231 164
2.515048e+000 2.729370e+000 -1.194054e+001 249 197 133
7.381792e-002 1.293676e+000 -6.099041e+000 161 128 85
2.452371e+000 2.519927e+000 -1.042501e+001 145 128 103
7.147354e-002 1.308615e+000 -6.141266e+000 131 103 64
2.762869e-002 1.351571e+000 -5.778653e+000 195 163 114
-1.818978e-001 1.491955e+000 -5.917160e+000 79 67 44
-5.522414e-002 1.444952e+000 -5.728146e+000 222 201 170
-1.556377e-001 1.480405e+000 -5.855573e+000 176 165 147
2.367489e-001 -4.103011e-002 -6.340125e+000 80 71 56
3.818929e-001 6.022028e-002 -6.359452e+000 150 137 113
2.362492e-001 3.784347e-001 -6.282707e+000 88 77 55
1.571081e-001 1.115141e-001 -6.269445e+000 28 26 27
3.013062e-001 1.427456e+000 -5.585638e+000 146 139 123
2.438104e-001 9.140487e-002 -6.333255e+000 2 1 0
3.314980e-001 1.020903e+000 -5.933173e+000 212 198 158
5.014938e-001 1.445564e+000 -5.689604e+000 200 182 157
3.105649e-001 1.084234e-001 -6.353066e+000 166 149 121
3.117833e-001 1.576676e-001 -6.346983e+000 161 144 115
2.861296e-001 8.292978e-001 -6.196879e+000 92 80 68
-1.242668e+000 1.131244e+000 -8.614338e+000 46 20 3
4.853560e-001 1.164228e+000 -6.023418e+000 182 158 122
5.230532e-001 1.352622e+000 -5.754669e+000 176 142 104
8.882495e-001 1.669865e+000 -6.519824e+000 210 179 133
4.102449e-001 2.298433e-002 -6.394477e+000 152 174 217
2.945118e-001 2.723839e-002 -6.372892e+000 87 74 57
2.683792e-001 5.780162e-001 -6.222295e+000 135 120 97
3.029688e-001 7.405934e-001 -6.217977e+000 164 153 123
9.190853e-001 2.671167e+000 -1.116563e+001 220 199 168
-4.737520e-001 1.589282e+000 -6.386093e+000 203 185 165
4.022060e-001 -1.407279e-001 -6.386319e+000 161 145 128
2.436178e-001 -7.535988e-002 -6.329984e+000 7 4 5
3.489127e-001 2.387778e-002 -6.367383e+000 152 136 110
2.350445e-001 1.849279e-001 -6.280999e+000 85 73 51
3.409327e-001 3.234130e-001 -6.293848e+000 168 154 128
-1.788283e+000 4.037997e-001 -9.063327e+000 198 204 227
3.046233e-001 6.191840e-001 -6.245529e+000 179 165 136
-1.807727e+000 4.591150e-001 -9.051102e+000 86 69 16
3.025775e-001 7.639945e-001 -6.215513e+000 187 176 144
-1.314215e+000 1.150481e+000 -8.682185e+000 176 132 65
4.791950e-001 1.112041e+000 -6.340465e+000 21 14 6
4.137467e-001 1.083710e+000 -5.975942e+000 108 82 49
4.738986e-001 1.108644e+000 -6.018639e+000 138 116 92
1.425207e-001 1.337948e+000 -5.712873e+000 230 198 151
5.919758e-001 1.508517e+000 -6.162355e+000 95 81 70
7.128210e-001 1.470185e+000 -5.813240e+000 56 46 36
3.199572e-001 -1.609386e-001 -6.424191e+000 17 12 8
3.021891e-001 -1.524809e-001 -6.395437e+000 15 11 8
3.493253e-001 5.435380e-001 -6.253307e+000 45 36 29
2.816685e-001 5.983764e-001 -6.237335e+000 119 105 79
2.816685e-001 5.983764e-001 -6.237335e+000 119 105 79
-1.815004e+000 4.139095e-001 -9.050319e+000 97 81 35
2.939151e-001 7.554959e-001 -6.211632e+000 75 62 38
2.846970e-001 8.068590e-001 -6.189328e+000 77 64 47
2.984738e-001 9.261994e-001 -6.179160e+000 13 10 1
4.356556e-001 2.284596e+000 -1.359879e+001 135 111 79
3.041838e-001 1.051051e+000 -5.929387e+000 253 238 205
3.858332e-001 1.061140e+000 -5.948577e+000 137 104 70
2.072207e-001 1.062428e+000 -5.951917e+000 165 132 91
4.629303e-001 1.136443e+000 -6.001837e+000 233 204 169
1.318553e+000 2.703475e+000 -1.311403e+001 138 107 56
4.724694e-001 1.172126e+000 -5.998252e+000 149 124 94
5.878106e-001 1.412522e+000 -6.182719e+000 118 98 74
5.953626e-001 1.420589e+000 -6.184544e+000 249 215 167
5.869825e-001 1.424781e+000 -6.180406e+000 113 96 71
5.940353e-001 1.438015e+000 -6.187214e+000 239 210 162
5.877193e-001 1.440249e+000 -6.174363e+000 111 95 71
6.825294e-001 1.518235e+000 -6.188879e+000 118 100 80
5.233588e-001 1.434028e+000 -5.648445e+000 88 75 60
3.012914e-001 -1.117055e-001 -6.400424e+000 86 75 55
3.740464e-001 2.719472e-003 -6.353165e+000 135 127 108
2.509504e-001 4.573175e-002 -6.330542e+000 62 49 32
2.919081e-001 7.607627e-002 -6.352697e+000 124 112 90
3.062515e-001 1.221956e-001 -6.358265e+000 172 156 128
2.275030e-001 4.176968e-001 -6.226043e+000 80 67 47
2.478289e-001 4.544227e-001 -6.235200e+000 118 110 90
-1.774096e+000 4.229002e-001 -9.085543e+000 100 86 32
2.780537e-001 7.757158e-001 -6.203632e+000 59 51 38
3.038839e-001 8.073240e-001 -6.203082e+000 170 155 126
-1.140630e+000 9.943678e-001 -8.617142e+000 48 26 2
-1.928077e+000 1.207258e+000 -8.617845e+000 220 188 137
-1.928077e+000 1.207258e+000 -8.617845e+000 220 188 137
3.033012e-001 9.962954e-001 -5.935602e+000 228 211 168
1.201370e+000 2.608509e+000 -1.329034e+001 55 25 2
1.263931e+000 2.630380e+000 -1.328057e+001 66 31 5
1.295561e+000 2.695213e+000 -1.319458e+001 64 43 4
4.649785e-001 1.167582e+000 -5.998929e+000 225 193 155
5.954980e-001 1.354375e+000 -6.197658e+000 238 213 171
4.781625e-001 1.303019e+000 -5.735409e+000 205 173 134
3.019853e-001 -1.732008e-001 -6.417545e+000 66 58 46
2.995535e-001 -8.517400e-002 -6.394451e+000 65 54 30
2.900249e-001 1.288939e-001 -6.334866e+000 37 24 8
2.982171e-001 4.679793e-001 -6.277102e+000 95 79 54
2.707964e-001 4.917459e-001 -6.251149e+000 80 68 42
-1.765396e+000 4.441771e-001 -9.081818e+000 203 177 116
1.835328e-001 6.425557e-001 -6.142909e+000 66 55 37
1.720610e-001 6.652040e-001 -6.127348e+000 125 109 86
1.720610e-001 6.652040e-001 -6.127348e+000 125 109 86
1.542075e-001 7.687233e-001 -6.091775e+000 77 60 42
-1.237606e+000 8.911231e-001 -8.709240e+000 173 151 91
-1.140467e+000 9.764274e-001 -8.636935e+000 120 101 49
-1.246768e+000 9.889747e-001 -8.678866e+000 184 143 87
-1.334339e+000 1.001669e+000 -8.722645e+000 207 168 116
-1.334339e+000 1.001669e+000 -8.722645e+000 207 168 116
-1.525027e+000 1.027313e+000 -8.687590e+000 205 175 103
-1.928433e+000 1.189810e+000 -8.622743e+000 52 25 0
2.913432e-001 9.642556e-001 -5.935119e+000 199 175 146
3.015909e-001 1.001335e+000 -5.925468e+000 90 68 38
3.874285e-001 1.080207e+000 -5.961297e+000 117 82 54
1.317500e+000 2.586450e+000 -1.308043e+001 79 57 11
-2.800747e+000 2.458791e+000 -1.037667e+001 28 15 6
8.678527e-001 2.651060e+000 -1.107811e+001 213 193 158
-2.085795e+000 2.324651e+000 -9.811212e+000 237 204 171
-2.301965e+000 2.506842e+000 -1.045093e+001 36 19 6
-5.802632e-001 1.600508e+000 -6.448437e+000 185 186 169
8.825212e-001 1.637408e+000 -6.549710e+000 207 200 179
2.715552e-001 -3.543542e-002 -6.366697e+000 114 102 86
3.018907e-001 1.774009e-002 -6.375423e+000 77 71 45
2.585550e-001 5.940543e-002 -6.335409e+000 123 115 94
1.382989e-001 1.922279e-001 -6.209683e+000 176 162 141
3.042580e-001 5.222513e-001 -6.262913e+000 164 149 120
2.551182e-001 5.695543e-001 -6.218047e+000 69 57 33
2.570720e-001 5.881517e-001 -6.214350e+000 81 67 42
-1.617487e+000 3.730323e-001 -9.275183e+000 89 95 85
1.905590e-001 6.637922e-001 -6.143302e+000 82 69 52
1.615709e-001 7.237502e-001 -6.103694e+000 121 105 89
1.806220e-001 7.359685e-001 -6.122196e+000 66 53 34
1.600012e-001 7.677938e-001 -6.097085e+000 120 104 85
-8.536815e-002 9.946005e-001 -1.016160e+001 42 32 23
3.702900e-001 9.893781e-001 -6.139369e+000 152 137 118
3.652429e-001 1.006628e+000 -5.929857e+000 93 75 53
2.425987e-002 1.062171e+000 -6.261252e+000 81 61 32
1.363306e+000 2.721940e+000 -1.310335e+001 120 102 75
4.809251e-001 1.189228e+000 -5.765879e+000 87 62 32
-2.961197e+000 2.515105e+000 -1.031576e+001 41 21 0
7.468435e-001 1.683526e+000 -6.743372e+000 108 110 117
6.793743e-001 1.460457e+000 -5.771070e+000 64 48 32
5.018633e-001 1.430190e+000 -5.631355e+000 118 108 90
3.214870e-001 1.419480e+000 -5.581875e+000 115 103 81
5.583625e-001 1.452827e+000 -5.663865e+000 92 79 60
2.734193e-001 -9.454987e-002 -6.369004e+000 114 108 94
2.617437e-001 -9.040719e-002 -6.362328e+000 53 48 29
1.997842e-001 -7.667382e-002 -6.305464e+000 74 66 45
